 1.40379551606253E+0002 6.28876505598892E+0001 0.00000000000000E+0000
 4.24449876815546E+0002 1.50454773762031E+0002 0.00000000000000E+0000
 1.44493942449801E+0002 1.62969229912851E+0001 0.00000000000000E+0000
 6.80349839790724E+0001 5.92082424906548E+0001 0.00000000000000E+0000
 1.72821429658681E+0002 3.28274335500319E+0001 1.67772150000000E+0006
 3.36877523469273E+0002 7.61244087878149E+0001 1.67772150000000E+0006
 4.32728048684075E+0001 7.81492941314355E-0001 0.00000000000000E+0000
 2.30956758830231E+0002 1.66094536376884E+0002 0.00000000000000E+0000
 8.65664730872959E+0001 1.00778096593217E+0002 1.67772150000000E+0006
 3.01153225426096E+0002 1.71028569553746E+0002 0.00000000000000E+0000
 3.94726072325371E+0002 8.74423167465720E+0001 0.00000000000000E+0000
 1.21314221163746E+0002 1.10464935432886E+0002 0.00000000000000E+0000
 3.70342741660774E+0002 8.50253586072940E+0001 0.00000000000000E+0000
 1.50435508152936E+0002 1.39446947755991E+0002 0.00000000000000E+0000
 3.01742662743665E+0002 5.46896555612329E+0001 0.00000000000000E+0000
 1.55474850303959E+0002 5.90251872630324E+0001 0.00000000000000E+0000
 9.59504997376353E+0001 2.34433784515131E+0001 0.00000000000000E+0000
 3.34063011862803E+0002 1.29995233625872E+0002 0.00000000000000E+0000
 2.47089362698607E+0002 1.32958733918378E+0002 0.00000000000000E+0000
 2.13127841883805E+0002 9.87301239443477E+0001 1.67772150000000E+0006
 3.95607919391245E+0002 1.54758426801534E+0002 0.00000000000000E+0000
 3.45197069639806E+0002 8.62169128048699E+0001 1.67772150000000E+0006
 3.32475280542858E+0002 1.54504661604995E+0002 0.00000000000000E+0000
 3.13895435969811E+0002 1.58656708901515E+0002 0.00000000000000E+0000
 3.68234283534810E+0002 5.13750580244232E+0001 1.67772150000000E+0006
 8.19017855641432E+0001 1.49237563219620E+0002 0.00000000000000E+0000
 3.33553799531423E+0002 2.67598555369768E+0001 0.00000000000000E+0000
 2.04381745187100E+0002 7.89395837818738E+0001 0.00000000000000E+0000
 1.65670689046383E+0002 1.61764782053651E+0002 0.00000000000000E+0000
 1.18661612837109E+0002 1.21481651956914E+0002 1.67772150000000E+0006
 2.29862030946650E+0002 8.12539616341237E+0001 4.47392400000000E+0005
 9.06590828443877E+0001 7.76911533041857E+0000 0.00000000000000E+0000
 8.38382498938590E+0001 1.51417236264097E+0002 0.00000000000000E+0000
 4.41336431906093E+0002 1.63451832138700E+0002 0.00000000000000E+0000
 3.15697767223231E+0002 3.10962766951416E+0001 1.67772150000000E+0006
 2.81191791058984E+0002 4.04519422648009E+0001 1.02637080000000E+0006
 1.28833800259978E+0002 1.53538573470432E+0001 0.00000000000000E+0000
 3.27554128589574E+0002 8.57073979708366E+0000 0.00000000000000E+0000
 4.44933935073204E+0002 1.57020670272643E+0002 0.00000000000000E+0000
 1.87197568881791E+0002 5.53402215032838E+0000 0.00000000000000E+0000
 5.79630976673216E+0001 1.61204053185182E+0002 0.00000000000000E+0000
 2.66540672202129E+0002 1.35085290749324E+0002 0.00000000000000E+0000
 1.97770548610948E+0002 1.59930065481457E+0001 0.00000000000000E+0000
 2.56446300422307E+0002 1.21986178274964E+0002 1.65140430000000E+0006
 3.42711526103318E+0002 1.00843874727608E+0002 1.67772150000000E+0006
 1.07387693679425E+0002 8.03347747283988E+0000 0.00000000000000E+0000
 4.16424162478186E+0002 1.02381066207075E+0002 0.00000000000000E+0000
 1.35496382973623E+0002 1.74452146524331E+0002 0.00000000000000E+0000
 3.06522991452366E+0001 9.45971878648270E+0001 1.67772150000000E+0006
 1.40757563703228E+0002 8.82736659802031E+0001 0.00000000000000E+0000
 2.98754824968986E+0002 1.26686968313762E+0002 0.00000000000000E+0000
 2.12368555137422E+0002 1.02559122256701E+0002 1.67772150000000E+0006
 4.46292163085192E+0002 1.36999345303746E+0002 0.00000000000000E+0000
 1.97025970826391E+0002 6.57639269414358E+0000 0.00000000000000E+0000
 3.30830531154759E+0002 6.58420921864454E+0001 1.67772150000000E+0006
 2.81657224948984E+0002 1.32908071780111E+0001 0.00000000000000E+0000
 4.26854600055143E+0002 8.51233584426809E+0001 0.00000000000000E+0000
 3.36861999597866E+0002 1.42778661322547E+0002 0.00000000000000E+0000
 3.30429176009260E+0002 3.06449927226640E+0000 0.00000000000000E+0000
 2.49079298002180E+0002 1.59422956216848E+0002 0.00000000000000E+0000
 7.90005311518908E+0001 2.44685692463536E+0001 0.00000000000000E+0000
 5.24570868769661E+0000 9.40007397334557E+0001 0.00000000000000E+0000
 2.00478007533588E+0002 2.42788550222758E+0001 0.00000000000000E+0000
 1.93460505574476E+0002 1.60021424399456E+0002 0.00000000000000E+0000
 9.34865195620805E+0001 1.48411822120892E+0002 0.00000000000000E+0000
 1.18923209012020E+0002 4.92545683006756E+0000 0.00000000000000E+0000
 2.63430579881184E+0002 1.71098850766430E+0002 0.00000000000000E+0000
 2.33159232751932E+0002 1.78002713724738E+0002 0.00000000000000E+0000
 1.93760473687202E+0002 1.51221135788830E+0002 0.00000000000000E+0000
 4.12992418580689E+0001 5.41399994257372E+0001 1.67772150000000E+0006
 2.82581206482835E+0002 8.83721255885903E+0001 0.00000000000000E+0000
 1.96927846554201E+0002 7.27570200392511E+0001 0.00000000000000E+0000
 2.94494850268587E+0002 1.25631875164108E+0002 1.67772150000000E+0006
 1.72767257009167E+0002 8.75402091189753E+0001 1.67772150000000E+0006
 2.99316913171671E+0002 1.76287688201526E+0002 0.00000000000000E+0000
 4.40211524059530E+0002 1.47833779912209E+0002 0.00000000000000E+0000
 3.47057357512414E+0002 6.89854232270736E+0001 1.67772150000000E+0006
 3.22476990869734E+0002 1.22797379168449E+0002 1.67772150000000E+0006
 1.57306891308166E+0002 8.40458388219122E+0001 1.67772150000000E+0006
 2.30884580529761E+0002 5.46897175104823E+0001 0.00000000000000E+0000
 2.12919158214703E+0002 1.69930352899479E+0002 0.00000000000000E+0000
 1.19539544590283E+0002 9.58875513679814E+0001 0.00000000000000E+0000
 3.95629450905137E+0002 1.56090591045329E+0002 0.00000000000000E+0000
 4.09424297535326E+0002 1.54993914735969E+0001 0.00000000000000E+0000
 1.20005728863179E+0001 6.56860989194829E+0001 0.00000000000000E+0000
 1.22669962192419E+0002 1.16683312921552E+0002 0.00000000000000E+0000
 4.08364737527445E+0001 3.89045937212650E+0001 0.00000000000000E+0000
 4.25222510802560E+0001 2.10282417887356E+0001 0.00000000000000E+0000
 5.19542828779668E+0001 1.46869129716652E+0002 0.00000000000000E+0000
 5.22673086938448E+0001 1.47608093318297E+0002 0.00000000000000E+0000
 2.37955366543494E+0002 5.93665528281126E+0001 0.00000000000000E+0000
 3.31331397271715E+0001 8.05681366657373E+0001 1.67772150000000E+0006
 3.38386033505201E+0002 2.28816192869563E+0001 0.00000000000000E+0000
 4.02932248233352E+0002 1.03529612075071E+0001 0.00000000000000E+0000
 3.10428513997234E+0002 1.25671153348172E+0002 1.30928070000000E+0006
 2.76961112722289E+0002 7.59354194120970E+0001 0.00000000000000E+0000
 1.13012837173417E+0002 1.20862619067775E+0002 1.67772150000000E+0006
 2.84422122195829E+0002 8.26559212736320E+0001 0.00000000000000E+0000
 1.05990231986157E+0002 1.32811481142649E+0002 0.00000000000000E+0000
 1.99383598120417E+0002 1.24531455307966E+0002 0.00000000000000E+0000
 1.01758676502853E+0002 8.32017298128921E+0001 1.67772150000000E+0006
 4.31043527337257E+0002 1.51143711111275E+0002 0.00000000000000E+0000
 1.35481220659800E+0002 6.26239448266570E+0001 0.00000000000000E+0000
 4.37812630909961E+0002 3.46567848115228E+0000 0.00000000000000E+0000
 3.20787707453594E+0002 1.17615273467497E+0002 1.67772150000000E+0006
 2.04482393909711E+0002 4.02360981001984E+0001 0.00000000000000E+0000
 3.98600517570041E+0002 1.40395697644213E+0002 0.00000000000000E+0000
 3.05493681137916E+0002 1.68741138782119E+0002 0.00000000000000E+0000
 1.45474962450564E+0002 5.07849650431890E+0001 0.00000000000000E+0000
 2.12071563786361E+0002 2.61126762803178E+0001 0.00000000000000E+0000
 1.31594950796105E+0002 1.43034559343243E+0002 0.00000000000000E+0000
 4.23741982034873E+0002 2.55025486589875E+0001 0.00000000000000E+0000
 1.95314553508535E+0002 6.75590844929684E+0001 0.00000000000000E+0000
 2.59495868586469E+0002 1.30742163226707E+0002 0.00000000000000E+0000
 2.64886092069559E+0002 3.08014380505774E+0001 1.67772150000000E+0006
 2.41616358140018E+0002 1.46346830032533E+0002 0.00000000000000E+0000
 2.23765375357121E+0002 5.87161485862452E+0001 0.00000000000000E+0000
 2.36934707800392E+0002 1.05974196924595E+0002 6.84247200000000E+0005
 9.76347098993137E+0001 9.26052521469537E+0001 1.67772150000000E+0006
 2.77030553426128E+0002 1.11696161171188E+0002 1.34875650000000E+0006
 1.65034308565781E+0002 1.11291082783835E+0002 1.67772150000000E+0006
 3.62642126914579E+0002 1.07693632644368E+0002 1.67772150000000E+0006
 2.58242722696625E+0002 6.18603521420155E+0001 0.00000000000000E+0000
 1.39302059424575E+0002 1.17233523566043E+0002 0.00000000000000E+0000
 3.14796922668815E+0002 1.50463893112959E+0002 0.00000000000000E+0000
 3.36964395536575E+0002 6.90373398165684E+0001 1.67772150000000E+0006
 3.28792651900090E+0002 9.89064425493125E+0001 1.67772150000000E+0006
 3.79138443350326E+0002 1.34007488058414E+0001 0.00000000000000E+0000
 1.97855679290369E+0002 1.08380422461777E-0002 0.00000000000000E+0000
 8.87950855200179E+0001 1.25673498906893E+0002 1.23690840000000E+0006
 7.34245751006529E+0001 1.99910037613008E+0001 0.00000000000000E+0000
 1.20061176226940E+0002 1.20959065451985E+0002 8.42150400000000E+0005
 1.45735635269433E+0002 4.23181003567297E+0001 1.67772150000000E+0006
 3.26467649089638E+0002 1.02143398291198E+0002 1.67772150000000E+0006
 2.47650579166599E+0002 3.08142139243428E+0001 1.67772150000000E+0006
 3.05266961011570E+0002 2.16121459135320E+0001 1.67772150000000E+0006
 2.20217645784840E+0002 1.24957959032850E+0002 1.67772150000000E+0006
 2.11085496966261E+0002 5.02657311304938E+0001 0.00000000000000E+0000
 3.06606713368557E+0002 6.86363708137069E+0001 0.00000000000000E+0000
 4.39265607199632E+0001 2.96916533221956E+0001 0.00000000000000E+0000
 5.88090674802661E+0001 1.52827461113455E+0002 0.00000000000000E+0000
 1.98289576491807E+0002 2.96033922459465E+0001 1.67772150000000E+0006
 1.64242442504503E+0002 1.05947813708568E+0002 1.67772150000000E+0006
 3.60921126551460E+0002 9.59052884073462E+0001 0.00000000000000E+0000
 8.91519615892321E+0001 1.28495935827959E+0001 0.00000000000000E+0000
 2.14463449754287E+0002 3.49927749938797E+0001 0.00000000000000E+0000
 1.92447600024752E+0002 1.48701345267007E+0002 0.00000000000000E+0000
 1.52016026013996E+0002 1.25147336371010E+0002 1.67772150000000E+0006
 8.93687970601022E+0001 9.82369552415330E+0001 1.67772150000000E+0006
 3.19375871712808E+0002 7.11355681407731E+0001 0.00000000000000E+0000
 3.54116841156967E+0002 1.10107153401011E+0002 1.67772150000000E+0006
 4.36472171049099E+0002 7.93717137628701E+0001 0.00000000000000E+0000
 1.13456536810845E+0001 7.93179285817314E+0001 0.00000000000000E+0000
 2.79260868322570E+0002 1.22530527382623E+0001 0.00000000000000E+0000
 2.58151596031152E+0002 1.02990233151475E+0002 1.67772150000000E+0006
 3.68094846156891E+0002 4.65275153552648E+0001 1.67772150000000E+0006
 3.84952925205231E+0002 8.39253516618628E+0001 0.00000000000000E+0000
 2.85335314659867E+0002 1.51802898998139E+0002 0.00000000000000E+0000
 1.36399522804655E+0002 6.47103085631970E+0001 0.00000000000000E+0000
 2.02720036521088E+0002 9.45570610181894E+0001 0.00000000000000E+0000
 6.82035224754363E+0001 1.24347689981805E+0002 1.67772150000000E+0006
 1.35754013047088E+0002 8.92584631673526E+0001 0.00000000000000E+0000
 6.05314607871696E+0001 1.62644254559884E+0002 0.00000000000000E+0000
 4.71382561339997E+0001 9.14564425942954E+0001 0.00000000000000E+0000
 2.83348576549441E+0002 1.23842708357842E+0002 1.67772150000000E+0006
 1.00022711777128E+0001 1.16950584403006E+0002 0.00000000000000E+0000
 8.08558835657314E+0001 1.70231018819148E+0002 0.00000000000000E+0000
 2.00455875921529E+0002 3.43985707738902E+0001 1.67772150000000E+0006
 1.87910641824827E+0002 1.80713642797666E+0002 0.00000000000000E+0000
 1.53725980241317E+0002 3.89718816473614E+0001 1.67772150000000E+0006
 3.93070852129720E+0002 1.66579043647507E+0002 0.00000000000000E+0000
 4.05893951868173E+0002 1.63918721969938E+0002 0.00000000000000E+0000
 7.26543991640210E+0001 1.64947872375371E+0002 0.00000000000000E+0000
 3.67999193048570E+0002 1.28143550502835E+0002 1.67772150000000E+0006
 1.91953467995860E+0002 2.56361878553871E+0001 0.00000000000000E+0000
 2.48024553142022E+0002 1.39162585193058E+0002 0.00000000000000E+0000
 1.17494859019294E+0002 9.54180911064614E+0001 0.00000000000000E+0000
 1.97029202156235E+0002 5.80446601069998E+0001 0.00000000000000E+0000
 1.28986826333217E+0002 4.79221486321185E+0001 0.00000000000000E+0000
 2.48444590219762E+0002 1.70196808926528E+0002 0.00000000000000E+0000
 6.93430645577610E+0001 3.06459798228461E+0001 1.67772150000000E+0006
 2.61299117992166E+0002 1.54103950007586E+0002 0.00000000000000E+0000
 3.27924469088204E+0002 1.98233834209386E+0001 0.00000000000000E+0000
 8.38871430116706E+0001 1.25382048001280E+0002 1.67772150000000E+0006
 2.88889294786379E+0002 1.61283780478407E+0001 0.00000000000000E+0000
 2.66147946980316E+0002 7.67541270374786E+0001 1.67772150000000E+0006
 2.16292338109575E+0002 1.39450531793991E+0002 0.00000000000000E+0000
 1.84770288986620E+0002 5.28085104709025E+0001 1.67772150000000E+0006
 1.43323767676950E+0002 8.82259558711667E+0001 0.00000000000000E+0000
 3.90788169665728E+0002 4.64866218972020E+0000 0.00000000000000E+0000
 1.72828228273429E+0002 8.05833732732572E+0000 0.00000000000000E+0000
 9.18343129707500E+0000 1.24794004486640E+0002 0.00000000000000E+0000
 2.99484329111874E+0000 1.53614385823952E+0002 0.00000000000000E+0000
 2.46760818839539E+0002 1.54941087492509E+0002 0.00000000000000E+0000
 7.38587406082079E+0001 3.10280694758985E+0001 1.67772150000000E+0006
 1.44311126904096E+0002 5.44448517239653E+0000 0.00000000000000E+0000
 1.37004726905376E+0002 1.06298014753731E+0002 0.00000000000000E+0000
 3.22828057663981E+0002 8.86267928841989E+0001 0.00000000000000E+0000
 1.02613735419698E+0002 1.60412445448572E+0002 0.00000000000000E+0000
 1.89294414702337E+0002 1.75277101499727E+0002 0.00000000000000E+0000
 8.37426721360535E+0001 1.18603569944389E+0000 0.00000000000000E+0000
 1.05303257797379E+0002 1.53947323088301E+0002 0.00000000000000E+0000
 2.45478285416029E+0002 1.42043052083114E+0002 0.00000000000000E+0000
 1.85296436450444E+0001 1.44905743162846E+0002 0.00000000000000E+0000
 2.84355684064329E+0002 1.03231159766437E+0002 0.00000000000000E+0000
 2.58185775191523E+0001 1.80857174488483E+0002 0.00000000000000E+0000
 2.63182128832676E+0002 2.00267721200362E-0001 0.00000000000000E+0000
 4.02404800869059E+0002 7.37890874536242E+0001 0.00000000000000E+0000
 1.68156722361222E+0002 8.81307880014647E+0001 1.67772150000000E+0006
 8.45300398548134E+0001 1.32553092003567E+0002 0.00000000000000E+0000
 1.36926622557454E+0002 3.58456840834115E+0001 1.67772150000000E+0006
 3.03473339819815E+0002 2.04114613658749E+0000 0.00000000000000E+0000
 2.88970404412597E+0002 1.09590683267684E+0002 0.00000000000000E+0000
 6.57601107009687E+0001 1.80065865962533E+0002 0.00000000000000E+0000
 9.54491952555254E+0001 1.57417028144235E+0002 0.00000000000000E+0000
 2.35065508376341E+0002 1.34304312323919E+0002 0.00000000000000E+0000
 1.94162084441632E+0001 1.13151142119662E+0002 0.00000000000000E+0000
 5.07777695031837E+0000 1.89146289795171E+0001 0.00000000000000E+0000
 2.23025300494395E+0002 1.73185584007064E+0002 0.00000000000000E+0000
 6.03371769762598E+0001 3.68490735045634E+0000 0.00000000000000E+0000
 1.90129176646471E+0002 1.11575666678370E+0002 0.00000000000000E+0000
 1.38161246166564E+0001 1.42823652828811E+0002 0.00000000000000E+0000
 9.54078698689118E+0001 1.40176114779199E+0002 0.00000000000000E+0000
 1.71756166740786E+0002 1.35751227648696E+0002 0.00000000000000E+0000
 3.92918118299916E+0002 1.54802136506187E+0002 0.00000000000000E+0000
 3.55027416959871E+0002 6.50164531986229E+0000 0.00000000000000E+0000
 2.31704266126268E+0002 4.56492844468448E+0001 1.67772150000000E+0006
 2.40026077599730E+0002 5.85940916237887E+0001 0.00000000000000E+0000
 3.34861312899739E+0002 1.75456480481895E+0002 0.00000000000000E+0000
 4.29875672610942E+0002 1.36483547172276E+0002 0.00000000000000E+0000
 4.45190736290999E+0002 8.81465797501150E+0001 0.00000000000000E+0000
 2.44761641649529E+0000 7.99498865285423E+0001 0.00000000000000E+0000
 3.26339713281021E+0002 7.19288486756850E+0001 1.67772150000000E+0006
 2.50466743696947E+0002 4.50348288908135E+0001 0.00000000000000E+0000
 1.00643647899851E+0001 1.10097732058027E+0002 0.00000000000000E+0000
 3.02717425113078E+0002 1.34386115338420E+0002 0.00000000000000E+0000
 9.00764874368906E+0000 2.90122842241544E+0001 0.00000000000000E+0000
 3.76115893966053E+0002 9.21182876403909E+0001 0.00000000000000E+0000
 9.11325265774503E+0001 1.72990639243508E+0002 0.00000000000000E+0000
 3.59164408795070E+0002 4.45494436265435E+0001 1.67772150000000E+0006
 2.40701028177515E+0002 1.71103895205306E+0002 0.00000000000000E+0000
 3.13052876912523E+0002 5.54233441210818E+0001 0.00000000000000E+0000
 3.90439840259962E+0002 1.03103787558386E+0002 0.00000000000000E+0000
 2.01423563876655E+0002 1.10476246438687E+0002 0.00000000000000E+0000
 9.12830431871116E+0001 9.09685265135486E+0001 1.67772150000000E+0006
 2.94564513901714E+0002 1.94578394431155E+0001 0.00000000000000E+0000
 2.91832621221431E+0002 1.79801173508400E+0002 0.00000000000000E+0000
 2.29547306205612E+0002 3.59656551682856E+0001 1.67772150000000E+0006
 1.24427371216937E+0002 6.40649317346979E+0001 0.00000000000000E+0000
 1.83574772295076E+0002 1.44702332001878E+0002 0.00000000000000E+0000
 3.34608347481117E+0001 7.03897257281933E+0001 1.67772150000000E+0006
 1.30554299188312E+0002 1.74015104431426E+0002 0.00000000000000E+0000
 3.43338878676295E+0002 1.47434445020976E+0002 0.00000000000000E+0000
 4.14662343575154E+0002 4.08268943529110E+0001 0.00000000000000E+0000
 1.20217549153603E+0002 1.74539226856316E+0002 0.00000000000000E+0000
 2.81415781914722E+0002 2.33183789418545E+0001 0.00000000000000E+0000
 3.99411824064329E+0002 5.91521529660095E+0001 0.00000000000000E+0000
 5.85157214705832E+0001 9.69704100869130E+0001 0.00000000000000E+0000
 3.17115888903849E+0002 1.29264735410223E+0002 1.67772150000000E+0006
 2.74479397283401E+0002 1.29826160385972E+0002 1.67772150000000E+0006
 2.75825561095029E+0002 1.93405664798338E+0001 0.00000000000000E+0000
 5.48257800810970E+0001 6.30823707047384E+0001 0.00000000000000E+0000
 1.16034877421334E+0001 8.54715076612774E+0001 0.00000000000000E+0000
 3.76330520126503E+0002 1.53369074297836E+0002 0.00000000000000E+0000
 1.05077741822227E+0002 1.87457926638890E+0001 0.00000000000000E+0000
 4.38615852002520E+0002 1.31327172492398E+0002 0.00000000000000E+0000
 3.91814441814087E+0002 5.00624195097480E+0001 0.00000000000000E+0000
 1.09091085334774E+0002 1.58343236934161E+0002 0.00000000000000E+0000
 1.44550197646021E+0001 4.88762066860218E+0001 0.00000000000000E+0000
 5.30093064517714E+0001 1.73550913396059E+0002 0.00000000000000E+0000
 3.94758762792684E+0002 8.60788835980929E+0000 0.00000000000000E+0000
 2.12155915982556E+0002 6.04583021493163E+0001 0.00000000000000E+0000
 4.46441253030673E+0002 2.67036236554850E+0001 0.00000000000000E+0000
 8.94346273918636E+0001 3.08106898970436E+0001 1.67772150000000E+0006
 2.81449331003241E+0002 1.04578294994542E+0002 0.00000000000000E+0000
 3.85366551452782E+0002 1.25548008270328E+0002 1.67772150000000E+0006
 2.72063207443804E+0002 1.37926970497938E+0002 0.00000000000000E+0000
 2.80267991656903E+0002 1.30966393886833E+0002 1.67772150000000E+0006
 3.22966348548420E+0002 1.51138905450935E+0002 0.00000000000000E+0000
 4.12622575561982E+0002 1.67443224971881E+0002 0.00000000000000E+0000
 2.96173759667203E+0002 1.50798457830446E+0002 0.00000000000000E+0000
 2.59913347077090E+0002 8.13350095420610E+0001 1.67772150000000E+0006
 4.08459292433225E+0002 1.04507292894879E+0002 0.00000000000000E+0000
 1.95930444685277E+0002 1.59907500151312E+0002 0.00000000000000E+0000
 8.56726003289223E+0001 5.35122518364806E+0001 0.00000000000000E+0000
 2.83319990603719E+0002 1.23407410199521E+0002 1.67772150000000E+0006
 1.28086367690004E+0002 5.08732594961766E+0001 0.00000000000000E+0000
 4.08898158813827E+0001 9.06351068036165E+0001 1.67772150000000E+0006
 1.89664437146857E+0002 2.41556461409200E+0001 0.00000000000000E+0000
 4.07937646434177E+0002 1.96276552311610E+0001 0.00000000000000E+0000
 2.24891460503452E+0002 6.88812583035324E+0001 0.00000000000000E+0000
 2.99617375017609E+0002 1.43311589896446E+0002 0.00000000000000E+0000
 3.64554698053747E+0002 9.52227336850483E+0001 0.00000000000000E+0000
 3.74109044136945E+0002 7.82347869190853E+0001 0.00000000000000E+0000
 5.16185913356021E+0001 1.48675315119559E+0002 0.00000000000000E+0000
 3.71108164894860E+0002 1.21736813245108E+0002 1.67772150000000E+0006
 6.20827343221754E+0001 5.56905786015559E+0001 0.00000000000000E+0000
 1.83899996776599E+0002 1.53167127330555E+0002 0.00000000000000E+0000
 4.19463868050836E+0002 1.67506450375775E+0002 0.00000000000000E+0000
 1.88034413372632E+0002 1.07010506387567E+0002 0.00000000000000E+0000
 2.86292523689568E+0002 1.33657888089539E+0002 0.00000000000000E+0000
 3.73669790388085E+0001 5.80290751929860E+0001 1.67772150000000E+0006
 2.16764939040877E+0002 1.02902601007605E+0002 1.67772150000000E+0006
 1.66981861494016E+0002 1.75780311459443E+0002 0.00000000000000E+0000
 1.14440873483195E+0002 1.06546184289502E+0002 0.00000000000000E+0000
 7.32622053553350E+0001 1.27120402768952E+0002 1.67772150000000E+0006
 2.07627946349792E+0002 1.21401042329380E+0002 0.00000000000000E+0000
 6.91235916106962E+0001 8.45523300690111E+0001 1.67772150000000E+0006
 3.97843123745173E+0002 9.68634761583526E+0001 0.00000000000000E+0000
 3.61176208029036E+0002 1.13528052731184E+0002 1.67772150000000E+0006
 1.53491978798993E+0002 1.80843309909338E+0002 0.00000000000000E+0000
 3.47331355507951E+0002 6.06417017220519E+0000 0.00000000000000E+0000
 3.38656350357458E+0002 1.57530431344407E+0002 0.00000000000000E+0000
 2.51117915358860E+0002 4.42804350375664E+0001 0.00000000000000E+0000
 4.32631025112234E+0002 5.12326214446221E+0001 0.00000000000000E+0000
 1.68724402529653E+0002 1.45720492947614E+0002 0.00000000000000E+0000
 3.52600068166852E+0002 9.47690480623860E+0001 1.67772150000000E+0006
 2.09532229764853E+0002 1.36564223806141E+0002 0.00000000000000E+0000
 1.11593427040614E+0002 1.16153798636281E+0002 1.67772150000000E+0006
 1.58655807703268E+0002 1.43091059671482E+0002 0.00000000000000E+0000
 4.26144341100007E+0001 7.15538269684184E+0001 1.67772150000000E+0006
 3.30755105913151E+0002 1.37003654190106E+0002 0.00000000000000E+0000
 4.08578832487576E+0002 5.87556890642736E+0001 0.00000000000000E+0000
 3.21362998648547E+0001 6.84712785927113E+0001 1.67772150000000E+0006
 2.23455950338393E+0002 6.25443035038188E-0001 0.00000000000000E+0000
 4.40906128840987E+0002 7.50023192528170E+0001 0.00000000000000E+0000
 1.38752648633905E+0002 1.38296088062460E+0002 0.00000000000000E+0000
 5.26955897840671E+0001 1.18505251807859E+0002 1.67772150000000E+0006
 5.72306673433632E+0001 8.00669174261857E+0001 0.00000000000000E+0000
 6.21859208168462E+0000 7.71474668427836E+0001 0.00000000000000E+0000
 1.27497995062731E+0002 1.70249160593608E+0002 0.00000000000000E+0000
 6.06811982891522E+0001 9.68713221361395E+0001 0.00000000000000E+0000
 2.78648870810866E+0001 1.18442289372207E+0002 0.00000000000000E+0000
 8.08070757896639E+0001 1.47676796468673E+0002 0.00000000000000E+0000
 5.26051568845287E+0001 1.09753631243947E+0001 0.00000000000000E+0000
 9.39947843919508E+0001 1.28030119994422E+0002 0.00000000000000E+0000
 2.65133660975844E+0001 2.49778804485686E+0000 0.00000000000000E+0000
 1.41872524865437E+0002 9.60077561743092E+0001 0.00000000000000E+0000
 2.31398537862115E+0002 9.89538655003998E+0001 1.67772150000000E+0006
 3.66265973412897E+0002 7.00351102722343E+0001 0.00000000000000E+0000
 1.46905018653721E+0002 4.04255044322927E+0001 1.67772150000000E+0006
 9.33448270806111E+0001 1.54329339413671E+0002 0.00000000000000E+0000
 3.06801113535650E+0002 6.15774728211109E+0001 0.00000000000000E+0000
 1.55463685106020E+0002 1.60405639206758E+0002 0.00000000000000E+0000
 1.67626119850203E+0002 9.46895632140804E+0001 1.67772150000000E+0006
 2.85962891202886E+0002 1.13256381925894E+0002 1.67772150000000E+0006
 1.96336384347640E+0002 9.35100473149214E+0001 0.00000000000000E+0000
 7.29449617839418E+0001 1.80062481257832E+0002 0.00000000000000E+0000
 4.03341008752584E+0002 3.84147946361918E+0001 0.00000000000000E+0000
 7.92225121054798E-0001 5.25463586102705E+0001 0.00000000000000E+0000
 1.75067828767933E+0002 3.86064302141313E+0001 1.67772150000000E+0006
 1.13941296442877E+0002 3.13258859829511E+0001 0.00000000000000E+0000
 3.48950291516259E+0002 8.73379063860048E+0001 1.67772150000000E+0006
 2.07180013970006E+0002 1.32878680401249E+0002 0.00000000000000E+0000
 9.24758564187214E+0001 1.57394863629946E+0002 0.00000000000000E+0000
 1.94482460887637E+0002 1.00976124912267E+0002 0.00000000000000E+0000
 3.36865445114672E+0001 1.02321155467303E+0002 1.67772150000000E+0006
 3.14147698255721E+0002 1.72696491143433E+0002 0.00000000000000E+0000
 4.05272261199541E+0002 1.41121912427479E+0002 0.00000000000000E+0000
 4.57578338566236E+0001 1.41376538423589E+0002 0.00000000000000E+0000
 6.21475174482912E+0001 3.44285200752784E+0001 1.67772150000000E+0006
 9.02210519802757E+0001 9.61109644665848E+0001 1.67772150000000E+0006
 1.09152174412272E+0002 1.73359886100749E+0002 0.00000000000000E+0000
 2.53915229146834E+0002 1.08659082617377E+0002 1.67772150000000E+0006
 3.42266836501658E+0002 6.45643714715261E+0001 1.30928070000000E+0006
 4.66977607668377E+0001 1.65868100660620E+0002 0.00000000000000E+0000
 6.24835178861395E+0001 5.71767606476787E+0001 0.00000000000000E+0000
 4.22297223738860E+0002 6.19723761917558E+0001 0.00000000000000E+0000
 1.82222207436338E+0002 7.56746458590496E+0001 0.00000000000000E+0000
 2.84352499984670E+0002 9.63780235506129E+0001 0.00000000000000E+0000
 7.99339571027085E+0001 2.78686004451010E+0001 1.67772150000000E+0006
 2.67114985921886E+0002 2.87922473174986E+0001 1.67772150000000E+0006
 2.03281118731946E+0002 8.65105162572581E+0001 0.00000000000000E+0000
 3.85795128741302E+0001 1.23806777371792E+0002 0.00000000000000E+0000
 7.70353543208912E+0001 1.74254480123753E+0002 0.00000000000000E+0000
 7.05596034186892E+0001 1.72947805130389E+0001 0.00000000000000E+0000
 2.57584044707939E+0002 1.79545643769670E+0001 0.00000000000000E+0000
 1.57972688671667E+0002 5.12306236445438E+0001 0.00000000000000E+0000
 3.48685721701942E+0002 9.75339064432774E+0001 1.67772150000000E+0006
 4.43509115106426E+0001 1.75791863519466E+0002 0.00000000000000E+0000
 5.58651486486197E+0001 5.89094524953980E+0001 0.00000000000000E+0000
 2.33431407348253E+0001 6.98528380494099E+0001 0.00000000000000E+0000
 8.75886744344607E+0001 7.47067401672248E+0001 1.53297690000000E+0006
 3.91723821162712E+0002 1.32292341755237E+0001 0.00000000000000E+0000
 2.70110485928133E+0002 2.74909533117898E+0000 0.00000000000000E+0000
 8.21742846672423E+0001 9.82830073020887E+0001 1.67772150000000E+0006
 4.00630383859388E+0002 1.06555617938051E+0002 0.00000000000000E+0000
 2.79852147148456E+0002 1.19747027292614E+0002 1.67772150000000E+0006
 8.81537071354687E+0001 8.83323319193442E+0001 1.67772150000000E+0006
 1.64514416443650E+0002 1.73878826028435E+0002 0.00000000000000E+0000
 2.01194030595012E+0002 1.08190874152118E+0002 0.00000000000000E+0000
 1.92709936175030E+0002 5.23028215297964E+0001 1.67772150000000E+0006
 1.60209261199459E+0002 8.75790974863339E+0001 1.67772150000000E+0006
 2.85306790534873E+0002 8.61503936394583E+0001 0.00000000000000E+0000
 1.75411757661961E+0002 1.56157962834695E+0002 0.00000000000000E+0000
 6.53702950081788E+0001 1.68357186268782E+0002 0.00000000000000E+0000
 2.09343098513782E+0002 7.86090953249950E+0001 0.00000000000000E+0000
 3.57157198032830E+0002 6.22270112063270E+0001 1.67772150000000E+0006
 7.13541236082092E+0001 6.81073795149569E+0001 0.00000000000000E+0000
 3.51741718597244E+0002 1.67621728488943E+0002 0.00000000000000E+0000
 2.45880874061957E+0002 8.44296866958030E+0000 0.00000000000000E+0000
 1.54539044775534E+0002 1.51386478335364E+0002 0.00000000000000E+0000
 3.91570556340739E+0001 1.25027083100983E+0002 0.00000000000000E+0000
 2.14741918200161E+0002 1.33869639642304E+0002 0.00000000000000E+0000
 2.17536505423486E+0001 3.62659725707490E+0001 0.00000000000000E+0000
 4.23435929472093E+0002 1.18646890043048E+0002 0.00000000000000E+0000
 2.11086302717216E+0002 4.00374177547637E+0001 0.00000000000000E+0000
 4.37909149508458E+0002 9.48087425285485E+0001 0.00000000000000E+0000
 3.00781101493165E+0002 2.82541457705665E+0001 1.67772150000000E+0006
 2.19421721827704E+0002 2.84209336310159E+0001 0.00000000000000E+0000
 3.09539388737641E+0002 1.55748534767190E+0002 0.00000000000000E+0000
 3.30451040772255E+0002 9.10170381700154E+0001 1.57903200000000E+0005
 1.33892214417458E+0002 1.39629825775045E+0001 0.00000000000000E+0000
 3.08178140668664E+0002 7.02326855610590E+0001 0.00000000000000E+0000
 1.76985065602697E+0002 1.64180314433062E+0002 0.00000000000000E+0000
 2.47730920925271E+0002 2.99407526866999E+0001 1.67772150000000E+0006
 4.20283493908122E+0002 1.56278604741441E+0002 0.00000000000000E+0000
 1.12449832067359E+0002 1.69496908330126E+0002 0.00000000000000E+0000
 3.33840266372077E+0002 5.52447879260872E+0001 1.67772150000000E+0006
 3.40191647709813E+0002 4.89548841712531E+0001 0.00000000000000E+0000
 3.44514664772898E+0002 5.39314333286602E+0001 0.00000000000000E+0000
 2.74436947467271E+0002 1.07360847345320E+0002 0.00000000000000E+0000
 3.29284558382817E+0002 3.57910591738764E+0001 0.00000000000000E+0000
 7.16935801785439E-0001 1.20486249563982E+0002 0.00000000000000E+0000
 9.95418751593679E+0001 9.15723605968524E+0001 1.67772150000000E+0006
 1.05625221807975E+0002 1.49608527798904E+0002 0.00000000000000E+0000
 2.49012096374296E+0002 1.43212726732949E+0002 0.00000000000000E+0000
 2.45430184935685E+0002 1.66199031527853E+0002 0.00000000000000E+0000
 6.16883996799588E+0001 1.31411421870114E+0002 0.00000000000000E+0000
 2.05053551650140E+0002 1.26275515432935E+0001 0.00000000000000E+0000
 1.59210756132379E+0001 9.66178056637291E+0001 0.00000000000000E+0000
 8.79308080296032E+0001 1.37242825323483E+0002 0.00000000000000E+0000
 4.40552842536941E+0002 7.14189674139489E+0001 0.00000000000000E+0000
 4.12019073300529E+0002 1.48438393966062E+0002 0.00000000000000E+0000
 5.97406850187108E+0001 1.09561149405548E+0002 1.67772150000000E+0006
 3.16968059310224E+0002 6.05631856841501E+0001 0.00000000000000E+0000
 6.28548406474292E+0001 9.80893343102653E+0001 0.00000000000000E+0000
 2.45219740936998E+0002 9.97862008649390E+0001 0.00000000000000E+0000
 2.26595560287125E+0002 1.30339371651644E+0002 0.00000000000000E+0000
 3.73552362437826E+0002 5.12746736907866E+0001 0.00000000000000E+0000
 1.01218266768381E+0002 9.07670183323789E+0001 1.67772150000000E+0006
 4.03344047334977E+0001 7.92950853228103E+0001 1.67772150000000E+0006
 5.75077370172366E+0001 4.38482682241593E+0001 1.67772150000000E+0006
 3.96504138631281E+0002 1.10096403646981E+0002 0.00000000000000E+0000
 2.31891932621598E+0002 1.68535345820012E+0002 0.00000000000000E+0000
 1.04040388985071E+0002 1.61684924582718E+0002 0.00000000000000E+0000
 4.35836103835143E+0002 1.11002738949144E+0002 0.00000000000000E+0000
 3.90440134793054E+0002 6.78500899539795E+0001 0.00000000000000E+0000
 1.84407792018726E+0002 2.66676455542911E+0001 0.00000000000000E+0000
 1.19468570232857E+0002 1.66050656922860E+0002 0.00000000000000E+0000
 3.45653355519287E+0002 1.67192095315550E+0001 0.00000000000000E+0000
 9.21972516342066E+0001 3.90205939856824E+0001 1.67772150000000E+0006
 4.25176643986255E+0002 1.39640920632752E+0002 0.00000000000000E+0000
 1.44095955389086E+0002 4.72040785315912E+0001 0.00000000000000E+0000
 3.63060446125455E+0002 1.46460553430254E+0002 0.00000000000000E+0000
 4.29693871799391E+0002 1.17378970963647E+0002 0.00000000000000E+0000
 1.87021335890517E+0002 1.24712020344333E+0002 0.00000000000000E+0000
 7.10757598620839E+0001 7.20781403824221E+0001 0.00000000000000E+0000
 3.64438542111777E+0002 2.33435137330089E+0001 0.00000000000000E+0000
 3.15228687991854E+0002 3.76680168320890E+0001 1.67772150000000E+0006
 4.43647466562688E+0002 5.80563120443840E+0001 0.00000000000000E+0000
 2.36004985681269E+0002 5.71937451090198E+0001 0.00000000000000E+0000
 3.91638475463726E+0002 5.98086250314955E+0001 0.00000000000000E+0000
 3.95217031098437E+0002 7.03503151328769E+0001 0.00000000000000E+0000
 2.07051589423791E+0002 3.74688530296553E+0001 0.00000000000000E+0000
 4.01294996221550E+0001 2.01890438802075E+0001 0.00000000000000E+0000
 2.04107696819119E+0002 1.07852635296294E+0002 0.00000000000000E+0000
 3.46364698314574E+0002 7.24187838805374E+0001 1.67772150000000E+0006
 4.86691560968757E+0000 1.63628062413307E+0002 0.00000000000000E+0000
 4.00986611331347E+0002 7.34112332749646E+0001 0.00000000000000E+0000
 1.99954728593118E+0002 5.68234277518932E+0001 0.00000000000000E+0000
 4.46279281269293E+0002 1.33269722437253E+0002 0.00000000000000E+0000
 2.16465170960873E+0001 3.49218929999042E+0001 0.00000000000000E+0000
 1.96485151451547E+0002 1.02570852157427E+0002 0.00000000000000E+0000
 1.29951118103228E+0002 1.25777442751685E+0002 0.00000000000000E+0000
 2.66518994150218E+0002 1.00638358387863E+0002 0.00000000000000E+0000
 5.60840298235416E+0001 1.08836503160418E+0002 1.67772150000000E+0006
 1.12423049746546E+0002 1.35458578551887E+0002 0.00000000000000E+0000
 7.44708906942978E+0001 1.26399599652970E+0002 1.67772150000000E+0006
 2.99079001828562E+0002 1.58596894414863E+0002 0.00000000000000E+0000
 4.00171856822446E+0002 4.29074287072290E+0001 0.00000000000000E+0000
 3.64424132262357E+0001 1.33724526517792E+0002 0.00000000000000E+0000
 1.07367502863518E+0002 4.94857186919544E+0001 4.21075200000000E+0005
 2.58315247984137E+0002 1.04615055173402E+0002 1.67772150000000E+0006
 6.42968713380396E+0001 1.69233254769118E+0002 0.00000000000000E+0000
 2.79422104271594E+0002 1.12720043024746E+0002 1.44086670000000E+0006
 4.34788295385428E+0002 1.64987442858750E+0002 0.00000000000000E+0000
 3.16305783230346E+0002 4.06831341662910E+0001 1.67772150000000E+0006
 3.94273619955406E+0002 1.29551787666278E+0002 0.00000000000000E+0000
 3.66307818759698E+0002 4.64020048275124E+0001 1.67772150000000E+0006
 2.20926446436904E+0002 9.26196597723756E+0001 1.67772150000000E+0006
 3.54649593239184E+0002 1.25497540618991E+0002 5.26344000000000E+0004
 2.23315025724471E+0002 1.00878726785304E+0002 1.67772150000000E+0006
 3.13379664188717E+0002 1.00299615341005E+0002 0.00000000000000E+0000
 1.77104247221723E+0001 1.01030423555756E+0002 0.00000000000000E+0000
 3.61702926866245E+0002 1.11708846354624E+0002 1.67772150000000E+0006
 4.38940591285005E+0002 8.67088364541996E+0001 0.00000000000000E+0000
 3.68957237802912E+0002 1.06543701515300E+0002 0.00000000000000E+0000
 1.99430942597799E+0002 1.10533376710722E+0002 0.00000000000000E+0000
 1.87253124275710E+0002 1.16232332668965E+0002 0.00000000000000E+0000
 8.48221019916236E+0001 1.69779617817374E+0002 0.00000000000000E+0000
 1.11542204717639E+0002 9.09585107106250E+0001 0.00000000000000E+0000
 3.19305409197696E+0002 1.94026719930116E+0001 0.00000000000000E+0000
 4.42629945065361E+0002 8.96210372054484E+0001 0.00000000000000E+0000
 8.95668290387839E+0001 9.73974807106424E+0001 1.67772150000000E+0006
 3.43983760443516E+0001 4.22160075723659E+0001 0.00000000000000E+0000
 2.81979883558117E+0002 8.67303942872677E+0001 0.00000000000000E+0000
 7.62543963915668E+0001 1.56501300830161E+0002 0.00000000000000E+0000
 3.18438232585788E+0002 9.32641553622670E+0000 0.00000000000000E+0000
 2.52569287015591E+0002 9.05267090606503E+0000 0.00000000000000E+0000
 2.02968527742662E+0002 1.04846482482040E+0002 0.00000000000000E+0000
 1.16250610942952E+0001 1.70708145068493E+0001 0.00000000000000E+0000
 2.29014164881781E+0002 1.36239165137755E+0002 0.00000000000000E+0000
 3.55333275109995E+0002 1.63548790552421E+0002 0.00000000000000E+0000
 2.96030559967272E+0002 7.63011513447855E+0001 0.00000000000000E+0000
 3.31741925822105E+0002 1.24659166171914E+0002 1.67772150000000E+0006
 1.78257339075208E+0000 1.17308966752607E+0001 0.00000000000000E+0000
 4.04096058177296E+0002 1.06470264262287E+0002 0.00000000000000E+0000
 3.41484707725234E+0002 4.24098133968655E+0001 0.00000000000000E+0000
 3.96967709157150E+0002 1.14350887609412E+0002 0.00000000000000E+0000
 3.57674703916535E+0002 9.38953735001851E+0001 0.00000000000000E+0000
 3.93720812563319E+0002 1.29672894571675E+0002 0.00000000000000E+0000
 7.64611609121785E+0001 1.49360500788549E+0002 0.00000000000000E+0000
 1.08326689740177E+0002 9.36710013260599E+0001 0.00000000000000E+0000
 1.68535803727806E+0002 4.46362703037448E+0000 0.00000000000000E+0000
 4.12295751234982E+0002 9.15691856767517E+0001 0.00000000000000E+0000
 6.00910249510780E+0001 4.68837871740106E+0001 1.67772150000000E+0006
 8.12410343955271E+0001 8.93330674262252E+0001 1.67772150000000E+0006
 3.53533324683085E+0002 8.25051286250818E+0001 1.67772150000000E+0006
 1.58339201905299E+0002 6.86576403088402E+0001 0.00000000000000E+0000
 3.31633273917250E+0002 1.53485209586332E+0002 0.00000000000000E+0000
 2.82704626256134E+0002 3.04973048693500E+0000 0.00000000000000E+0000
 2.04502626355737E+0002 9.86914614599664E+0001 0.00000000000000E+0000
 5.04421851583757E+0001 6.81145566094201E+0001 0.00000000000000E+0000
 4.37539203663357E+0002 8.22401903124992E+0001 0.00000000000000E+0000
 2.60894392888527E+0002 7.64057664328720E+0001 1.67772150000000E+0006
 4.44230179158971E+0002 1.71224924020935E+0001 0.00000000000000E+0000
 3.53348492574412E+0002 6.84483250051271E+0001 1.67772150000000E+0006
 3.80454384944402E+0002 1.91514587684069E+0001 0.00000000000000E+0000
 7.32191344178282E+0001 5.47936294113751E+0001 0.00000000000000E+0000
 5.46742674708366E+0001 8.97150438849349E+0001 0.00000000000000E+0000
 1.08472264854703E+0002 2.62162250827532E+0001 0.00000000000000E+0000
 2.55158116542734E+0002 1.67068973373855E+0002 0.00000000000000E+0000
 1.24805851652752E+0002 1.27411498667439E+0002 0.00000000000000E+0000
 2.85123192759231E+0002 1.02154065783368E+0002 0.00000000000000E+0000
 3.38853069946636E+0002 2.98037224642467E+0001 0.00000000000000E+0000
 3.59440378393047E+0002 6.51723434275482E+0001 1.67772150000000E+0006
 3.64423574210610E+0002 2.33238254187163E+0001 0.00000000000000E+0000
 1.95290976706892E+0002 1.24406307288678E+0002 0.00000000000000E+0000
 3.53548481168691E+0002 5.72662656817120E+0001 1.67772150000000E+0006
 4.38916284707375E+0002 1.37015750982100E+0002 0.00000000000000E+0000
 1.78844688642304E+0002 6.45843797305133E+0001 1.67772150000000E+0006
 2.72350564336404E+0002 5.07964887835551E+0001 1.67772150000000E+0006
 1.14464155335445E+0002 6.22335830524098E+0001 0.00000000000000E+0000
 3.00778037100099E+0002 3.71353727190290E+0001 8.42150400000000E+0005
 3.26643766557332E+0002 1.34217973907943E+0001 0.00000000000000E+0000
 2.64904527135193E+0002 1.01645973717095E+0002 0.00000000000000E+0000
 1.72621410882566E+0002 2.58764795537572E+0001 0.00000000000000E+0000
 8.48437771294266E+0000 1.31219301823759E+0002 0.00000000000000E+0000
 2.06433892748784E+0002 5.74876267851796E+0001 0.00000000000000E+0000
 1.73893266180530E+0002 1.14473940479802E+0002 0.00000000000000E+0000
 6.78623059918173E+0001 1.55936133698327E+0002 0.00000000000000E+0000
 1.04387542339973E+0002 1.36839969860623E+0002 0.00000000000000E+0000
 2.93540493318345E+0002 1.32166875771945E+0002 0.00000000000000E+0000
 3.77440715264529E+0002 1.58761054278584E+0002 0.00000000000000E+0000
 1.08992216716054E+0002 1.46815894408850E+0002 0.00000000000000E+0000
 7.22977135526016E+0001 1.73749068647856E+0002 0.00000000000000E+0000
 3.58112663801294E+0002 1.13951058557024E+0002 1.67772150000000E+0006
 4.42637544019148E+0002 1.21275639011757E+0002 0.00000000000000E+0000
 2.76359915104229E+0002 3.47355778932106E+0001 1.67772150000000E+0006
 4.03984973824583E+0002 6.07349721326027E+0001 0.00000000000000E+0000
 1.69671997291502E+0002 1.60873742569005E+0002 0.00000000000000E+0000
 2.00261861041188E+0002 7.19623491440434E+0001 0.00000000000000E+0000
 2.69875147326384E+0002 1.13948264519451E+0002 1.67772150000000E+0006
 2.23618758657016E+0002 1.17042658265912E+0002 1.67772150000000E+0006
 6.09891256643459E+0000 1.14008595334133E+0002 0.00000000000000E+0000
 4.00437417017296E+0002 1.43393341581570E+0002 0.00000000000000E+0000
 2.55463711798657E+0002 9.50195956907701E+0001 0.00000000000000E+0000
 3.04144809703343E+0002 2.93561308777425E+0001 1.67772150000000E+0006
 7.30564822121523E+0001 1.32029931351310E+0002 0.00000000000000E+0000
 2.67229307848960E+0002 1.04781947546871E+0002 0.00000000000000E+0000
 7.49600373082794E+0001 3.91695707205217E+0001 1.67772150000000E+0006
 3.00599627894349E+0002 1.28343341551954E+0002 0.00000000000000E+0000
 1.74851760748308E+0002 2.48357589670923E+0001 0.00000000000000E+0000
 4.45177177777514E+0002 7.85588444538880E+0001 0.00000000000000E+0000
 4.84372611385770E+0001 1.72676843707217E+0002 0.00000000000000E+0000
 3.43624265631661E+0001 6.76361150131561E+0000 0.00000000000000E+0000
 8.37346127531491E+0001 1.23332725069486E+0000 0.00000000000000E+0000
 1.62765922509134E+0002 4.65107277829666E+0001 1.67772150000000E+0006
 2.39974807193968E+0002 1.24345520409522E+0002 1.67772150000000E+0006
 3.58344584570266E+0002 9.01375534425024E+0001 0.00000000000000E+0000
 1.60634040988516E+0002 1.15687172868987E+0002 1.67772150000000E+0006
 2.34833892339841E+0002 1.36481482955860E+0002 0.00000000000000E+0000
 4.21863464124966E+0002 1.20034455121262E+0002 0.00000000000000E+0000
 2.71165994284675E+0001 5.97949347109534E+0000 0.00000000000000E+0000
 4.39332014524844E+0002 4.31296669614967E+0001 0.00000000000000E+0000
 2.81918595280498E+0002 6.06358572107274E+0001 1.67772150000000E+0006
 2.90247963453177E+0002 1.52249047546415E+0002 0.00000000000000E+0000
 1.93972540427931E+0002 8.65923929365817E+0001 0.00000000000000E+0000
 4.09074796866160E+0002 8.68340620154049E+0001 0.00000000000000E+0000
 5.39900181815028E-0001 5.82856314771343E+0001 0.00000000000000E+0000
 3.79207057696302E+0002 2.07955396741163E+0001 0.00000000000000E+0000
 4.42932001761161E+0002 3.24252703173552E+0001 0.00000000000000E+0000
 3.89621774075087E+0002 1.61350038740551E+0002 0.00000000000000E+0000
 1.44207398593425E+0001 8.52782922510523E+0001 0.00000000000000E+0000
 9.72710984931327E+0001 6.34978126536589E+0001 1.67772150000000E+0006
 2.12679555648007E+0002 1.65993123095715E+0002 0.00000000000000E+0000
 2.87317828978412E+0001 8.50175294443034E+0000 0.00000000000000E+0000
 7.16453142184764E+0001 1.45948203469859E+0002 0.00000000000000E+0000
 3.83771147285588E+0001 4.29766836694907E+0001 0.00000000000000E+0000
 2.48441705460660E+0002 2.73593496328685E+0001 1.67772150000000E+0006
 1.80086938889232E+0002 1.03448382407194E+0002 0.00000000000000E+0000
 3.98754793379456E+0002 1.38630278387340E+0002 0.00000000000000E+0000
 7.42613906585611E+0001 1.71491702816216E+0002 0.00000000000000E+0000
 5.88013388486579E+0001 1.03180671043926E+0002 1.67772150000000E+0006
 1.15653964537661E+0002 1.73807173756650E+0002 0.00000000000000E+0000
 4.00780520802364E+0002 1.19736151448683E+0002 0.00000000000000E+0000
 3.80289544035215E+0002 1.10845449973596E+0002 0.00000000000000E+0000
 3.17449680863880E+0002 1.73314553072909E+0002 0.00000000000000E+0000
 3.53483017390128E+0002 3.78389893432613E+0001 0.00000000000000E+0000
 7.12147164121270E+0001 8.13928501654882E+0001 1.67772150000000E+0006
 3.07241042316891E+0001 1.10350331681547E+0002 0.00000000000000E+0000
 3.75875747085549E+0002 6.69891279677395E+0001 0.00000000000000E+0000
 3.72944018177222E+0002 4.66963541151490E+0001 1.67114220000000E+0006
 8.89186797235161E+0001 1.47643966990756E+0002 0.00000000000000E+0000
 3.15429590367246E+0002 1.19857878015143E+0002 1.67772150000000E+0006
 2.73993296745233E+0002 1.13535616355249E+0002 1.67772150000000E+0006
 1.57400478938129E+0002 4.47340024930891E+0001 1.67772150000000E+0006
 1.54968492966145E+0002 1.03213331193896E+0002 1.67772150000000E+0006
 2.62015089432243E+0002 1.35850539459614E+0002 0.00000000000000E+0000
 9.67052858518437E+0001 2.06832491161767E+0001 0.00000000000000E+0000
 2.00320831145626E+0002 1.05881925245514E+0002 0.00000000000000E+0000
 3.94382242094725E+0001 6.48311807357240E+0001 1.67772150000000E+0006
 8.41433441312984E+0000 1.51595983785344E+0002 0.00000000000000E+0000
 2.52405820316635E+0002 1.62416689260164E+0002 0.00000000000000E+0000
 4.21827253831085E+0002 1.50080916363513E+0002 0.00000000000000E+0000
 2.09120630487800E+0002 1.23122834143461E+0002 0.00000000000000E+0000
 4.03903282417450E+0002 7.33638929228764E+0001 0.00000000000000E+0000
 4.38419609078206E+0002 2.73959538007621E+0001 0.00000000000000E+0000
 2.30682001709472E+0002 6.87806199358311E+0001 0.00000000000000E+0000
 2.48185360925272E+0002 4.10598623857368E+0001 0.00000000000000E+0000
 1.79555192798842E+0002 1.45705259837909E+0002 0.00000000000000E+0000
 4.22378917227499E+0002 1.62938835630426E+0002 0.00000000000000E+0000
 1.78711233304348E+0002 1.78500077023869E+0002 0.00000000000000E+0000
 4.35774659860879E+0002 9.49737607475836E+0001 0.00000000000000E+0000
 7.51332052820362E+0001 7.57941854062956E+0001 0.00000000000000E+0000
 4.04538019132800E+0002 1.25658253955189E+0001 0.00000000000000E+0000
 2.90666339072865E+0002 1.14507725366856E+0001 0.00000000000000E+0000
 2.22536569973454E+0002 1.62132120705442E+0002 0.00000000000000E+0000
 6.54204180878587E+0001 1.14832175289047E+0002 1.67772150000000E+0006
 6.70251515647396E+0001 1.54107533371309E+0002 0.00000000000000E+0000
 4.33522769530769E+0002 1.49222182105994E+0002 0.00000000000000E+0000
 3.11095635406673E+0002 1.31877301802160E+0002 1.36191510000000E+0006
 4.13987466058228E+0002 1.14514936807332E+0002 0.00000000000000E+0000
 3.33031966821291E+0002 6.93746113369707E+0001 1.67772150000000E+0006
 4.32163633774035E+0001 4.05298189611640E+0001 1.67772150000000E+0006
 2.94461104894057E+0002 1.13276035219896E+0001 0.00000000000000E+0000
 2.96397598781157E+0002 1.78561675817473E+0002 0.00000000000000E+0000
 2.36940485852771E+0002 1.33390174450586E+0002 0.00000000000000E+0000
 3.37817175620701E+0002 1.29025780804222E+0002 0.00000000000000E+0000
 3.45372634883970E+0002 8.76409371655900E+0001 1.67772150000000E+0006
 2.50849258715753E+0002 1.33068935859482E+0001 0.00000000000000E+0000
 8.03875513868406E+0001 4.01847231241409E+0001 1.67772150000000E+0006
 7.71408057021908E+0001 1.46171796684852E+0002 0.00000000000000E+0000
 2.51583492664620E+0002 6.08409977250267E+0001 0.00000000000000E+0000
 4.10256159317214E+0002 5.43546836643945E+0001 0.00000000000000E+0000
 1.46266781053506E+0002 1.53564898530021E-0001 0.00000000000000E+0000
 6.67972256219946E+0001 8.51747738753911E+0001 1.67772150000000E+0006
 2.67081259489059E+0002 4.32059357587714E+0001 1.67772150000000E+0006
 3.26764863161836E+0002 2.52955287646037E+0001 0.00000000000000E+0000
 3.34668020510115E+0002 2.97673631855287E+0000 0.00000000000000E+0000
 3.14677108063828E+0002 5.49848447458353E+0001 0.00000000000000E+0000
 2.03246033700183E+0002 1.67219529266702E+0002 0.00000000000000E+0000
 3.88709860072006E+0002 1.77485597633524E+0002 0.00000000000000E+0000
 2.73754296566360E+0002 4.21014248079155E+0001 1.67772150000000E+0006
 1.20875654520001E+0002 1.00355913638835E+0002 0.00000000000000E+0000
 3.35946133855730E+0002 6.90848555651028E+0001 1.67772150000000E+0006
 3.60006145241205E+0002 1.42888541928260E+0002 0.00000000000000E+0000
 3.52576270309277E+0002 3.37868905442301E+0001 0.00000000000000E+0000
 2.07053923416417E+0002 1.68968703744700E+0002 0.00000000000000E+0000
 1.05571301853284E+0002 5.78004631616641E+0001 1.67772150000000E+0006
 4.05979297359008E+0002 1.05979793091071E+0002 0.00000000000000E+0000
 9.98241902282462E+0001 1.54711888334015E+0002 0.00000000000000E+0000
 1.80237658237573E+0002 4.46163039763924E+0001 1.67772150000000E+0006
 4.21003406055272E+0002 1.68799043630483E+0002 0.00000000000000E+0000
