 4.14953454151517E+0002 9.49253485049121E+0001 0.00000000000000E+0000
 2.47104227461154E+0002 1.15327331888489E+0002 1.67772150000000E+0006
 2.42990157377673E+0002 1.09966152737382E+0002 1.67772150000000E+0006
 1.69570912805619E+0002 1.29384377321228E+0002 0.00000000000000E+0000
 4.68419395030942E+0001 9.39524978301488E+0001 1.67772150000000E+0006
 2.99907460035989E+0002 1.57966205247678E+0002 0.00000000000000E+0000
 2.43950003883569E+0002 1.33527429923881E+0002 0.00000000000000E+0000
 2.76081941328244E+0002 1.43800824653357E+0002 0.00000000000000E+0000
 3.12965861949837E+0002 4.71875603753142E+0001 1.67772150000000E+0006
 4.46248182321433E+0001 1.87131874253973E+0001 0.00000000000000E+0000
 2.42217946977122E+0002 1.79798385581467E+0002 0.00000000000000E+0000
 2.56419285909506E+0002 8.63831839580089E+0001 1.67772150000000E+0006
 8.75952200421598E+0001 1.79419177116361E+0002 0.00000000000000E+0000
 9.79164220599923E+0001 1.38428965704515E+0001 0.00000000000000E+0000
 2.31050893167732E+0002 9.76093171802349E+0001 1.67772150000000E+0006
 1.21853265534387E+0002 1.62009985737503E+0002 0.00000000000000E+0000
 1.25679394654696E+0002 5.46379543612711E+0001 0.00000000000000E+0000
 3.20301949635381E+0002 1.61804084132425E+0002 0.00000000000000E+0000
 1.30069701601518E+0002 5.26885470980778E+0000 0.00000000000000E+0000
 3.33628015105845E+0002 4.64307348243892E+0000 0.00000000000000E+0000
 4.18388164611300E+0002 1.00042323125060E+0002 0.00000000000000E+0000
 3.07686027804622E+0002 9.23661192366853E+0001 0.00000000000000E+0000
 4.39394968631677E+0000 1.02260700543411E+0001 0.00000000000000E+0000
 1.29330626069801E+0002 1.75880338046700E+0002 0.00000000000000E+0000
 3.70340222310042E+0002 1.54856898504775E+0002 0.00000000000000E+0000
 2.46071122769499E+0002 5.30779730593786E+0001 0.00000000000000E+0000
 4.23464198716683E+0002 3.05450863675214E+0001 0.00000000000000E+0000
 2.35447787040146E+0002 5.48209520224482E+0001 0.00000000000000E+0000
 1.05191893482115E+0001 1.11963339054491E+0002 0.00000000000000E+0000
 3.41457930712262E+0002 1.17039703202433E+0002 0.00000000000000E+0000
 2.77551759498892E+0002 8.01921874475665E+0001 0.00000000000000E+0000
 1.32109924423741E+0002 8.32431041151285E+0001 0.00000000000000E+0000
 1.87713214731775E+0000 1.18343706160318E+0002 0.00000000000000E+0000
 1.65933268420631E+0002 1.25986438068561E+0002 1.67772150000000E+0006
 9.79559579759370E+0001 1.13135427112225E+0002 1.67772150000000E+0006
 1.51022843045415E+0002 4.00942335184664E+0001 1.67772150000000E+0006
 2.62557757808827E+0000 1.53336323415395E+0002 0.00000000000000E+0000
 1.54945463912794E+0002 6.68486123625189E+0000 0.00000000000000E+0000
 1.52888900852529E+0002 1.50256738573778E+0002 0.00000000000000E+0000
 3.60586866772966E+0002 4.22937642894685E+0001 1.67772150000000E+0006
 2.96214028585469E+0002 7.07041359948926E+0001 0.00000000000000E+0000
 3.38767247062409E+0002 9.86421958347782E+0001 1.67772150000000E+0006
 2.40477412200998E+0001 1.46076543814037E+0002 0.00000000000000E+0000
 2.61203479142161E+0002 1.08848339723423E+0002 1.67772150000000E+0006
 4.31995979813626E+0002 1.04515570031013E+0002 0.00000000000000E+0000
 3.31146140223602E+0002 4.51276889191940E+0001 1.67772150000000E+0006
 1.10874444181798E+0002 1.38290862959344E+0002 0.00000000000000E+0000
 1.84769463981735E+0002 9.82795567288995E+0001 0.00000000000000E+0000
 2.40582433230942E+0002 2.88378919879906E+0001 1.67772150000000E+0006
 1.28142348855967E+0002 4.85065958453342E+0001 0.00000000000000E+0000
 1.45503052477492E+0002 1.37120923655573E+0002 0.00000000000000E+0000
 3.75358546038391E+0002 1.93642002027482E+0001 0.00000000000000E+0000
 9.48829137550201E+0001 4.82430680370890E+0001 1.67772150000000E+0006
 3.76154152149567E+0002 1.45886664644815E+0002 0.00000000000000E+0000
 8.23944521087688E+0001 1.16475270443130E+0002 1.67772150000000E+0006
 4.33090531601803E+0002 1.72186977405101E+0002 0.00000000000000E+0000
 4.16833984877681E+0002 1.61126123431604E+0002 0.00000000000000E+0000
 3.21130793649936E+0002 3.90771204000339E+0001 1.67772150000000E+0006
 2.33658637963934E+0002 1.06924374131951E+0002 1.02637080000000E+0006
 1.51879491296131E+0001 3.35057523343712E+0001 0.00000000000000E+0000
 4.29815264289966E+0002 1.67836001881864E+0002 0.00000000000000E+0000
 1.43972871883074E+0002 2.18601496191695E+0001 0.00000000000000E+0000
 2.03064479443012E+0002 2.84877411765046E+0001 0.00000000000000E+0000
 3.47220189872431E+0002 4.94292801022530E+0001 0.00000000000000E+0000
 1.79752939507132E+0002 1.42618924930226E+0002 0.00000000000000E+0000
 8.31202309804503E+0001 1.08574884611181E+0002 1.67772150000000E+0006
 1.94736986082746E+0002 1.68233523050789E+0002 0.00000000000000E+0000
 2.86535148498835E+0002 4.07441308721900E-0001 0.00000000000000E+0000
 1.39107834936585E+0001 1.02374251326080E+0002 0.00000000000000E+0000
 3.67327351304004E+0002 7.90138878608122E+0001 0.00000000000000E+0000
 2.26542073181598E+0002 1.30690625623334E+0002 0.00000000000000E+0000
 3.47878363720374E+0002 9.25339764170349E+0001 1.67772150000000E+0006
 1.99368670288241E+0002 1.39222836400848E+0002 0.00000000000000E+0000
 1.70626240071142E+0002 7.76321364035830E+0001 1.67772150000000E+0006
 3.77158827424748E+0002 6.20733185322024E+0001 0.00000000000000E+0000
 3.87199658916565E+0002 6.91617201287299E+0001 0.00000000000000E+0000
 2.34188590628793E+0002 1.11887891442980E+0002 1.67772150000000E+0006
 5.94768219797406E+0001 1.38068506200798E+0002 0.00000000000000E+0000
 2.78839272509096E+0002 1.66318344559986E+0002 0.00000000000000E+0000
 3.30647282759892E+0002 1.43830335758626E+0002 0.00000000000000E+0000
 8.62681675774511E+0001 1.62888343072962E+0002 0.00000000000000E+0000
 3.33104829833144E+0002 8.09797565145418E+0001 1.67772150000000E+0006
 9.08556347682606E+0001 1.41934529008809E+0002 0.00000000000000E+0000
 3.72749549840810E+0002 1.34506549609825E+0002 1.67772150000000E+0006
 2.30881672145566E+0002 7.05446926183067E+0001 0.00000000000000E+0000
 1.74027195165167E+0002 1.47187014282681E+0002 0.00000000000000E+0000
 2.71635108797578E+0002 1.68664889075328E+0002 0.00000000000000E+0000
 1.96783981292741E+0002 5.71368853487074E+0001 3.68440800000000E+0005
 3.99085389187094E+0001 1.50797375488561E+0002 0.00000000000000E+0000
 2.90764938865090E+0002 1.31347584938630E+0001 0.00000000000000E+0000
 1.49582123079104E+0002 4.96124322572723E+0000 0.00000000000000E+0000
 3.46333945417078E+0002 6.51289837993681E+0000 0.00000000000000E+0000
 3.33749381681671E+0002 8.88376205503009E+0001 1.67772150000000E+0006
 1.12743561802664E+0002 1.70662304562517E+0002 0.00000000000000E+0000
 2.09588105606614E+0002 1.78271320570726E+0002 0.00000000000000E+0000
 3.84032798308181E+0002 4.84489102214575E+0001 0.00000000000000E+0000
 2.61929509043461E+0002 4.45508095021360E+0001 1.51981830000000E+0006
 2.65380935453111E+0002 6.00877887038514E+0001 1.67772150000000E+0006
 4.92287495105993E+0001 1.91383702405728E+0001 0.00000000000000E+0000
 9.54955244783778E+0001 1.23272242879495E+0002 0.00000000000000E+0000
 1.34389940062305E+0002 4.97723362497054E+0001 0.00000000000000E+0000
 4.43626925221179E+0001 1.56046523088589E+0001 0.00000000000000E+0000
 5.06487786832731E+0001 1.41113270760048E+0002 0.00000000000000E+0000
 1.62437877482967E+0002 1.41625953223556E+0002 0.00000000000000E+0000
 3.69465919870650E+0002 5.03559662806802E+0001 1.67772150000000E+0006
 1.70105117570842E+0002 1.44990626319312E+0002 0.00000000000000E+0000
 6.31342134035658E+0001 1.35479139423464E+0002 0.00000000000000E+0000
 6.99830205452163E+0001 9.15840673614293E+0001 1.67772150000000E+0006
 1.34552935300162E+0002 5.00546960397623E+0001 0.00000000000000E+0000
 9.44055376409087E+0001 1.25629215602763E+0002 0.00000000000000E+0000
 1.33721359621267E+0001 1.68788441669662E+0002 0.00000000000000E+0000
 4.00155667181360E+0002 1.57079315014184E+0002 0.00000000000000E+0000
 1.49460230506724E+0002 1.75214112303685E+0002 0.00000000000000E+0000
 1.40280212879414E+0002 9.78436833275482E+0001 0.00000000000000E+0000
 2.08397956286324E+0002 1.48212600457016E+0002 0.00000000000000E+0000
 1.24563721825601E+0002 1.23643363891169E+0002 0.00000000000000E+0000
 2.65451822595438E+0002 1.17278251556213E+0002 1.67772150000000E+0006
 4.28989727163920E+0002 1.21543535337783E+0002 0.00000000000000E+0000
 4.37230177565245E+0002 7.47041056384333E+0001 0.00000000000000E+0000
 7.12674204551149E+0001 6.24595540650189E+0001 0.00000000000000E+0000
 3.12975017245626E+0002 1.25107959363143E+0002 1.67772150000000E+0006
 1.70251878727460E+0002 6.18350452836603E+0000 0.00000000000000E+0000
 1.06192661874694E+0002 1.35971123336349E+0002 0.00000000000000E+0000
 4.98359712150414E+0001 1.20728132346645E+0002 1.57903200000000E+0005
 1.95076424335828E+0002 1.08111749747302E+0002 0.00000000000000E+0000
 4.44642070783535E+0002 5.70350352199748E+0001 0.00000000000000E+0000
 3.01924395802198E+0002 1.77264605317730E+0002 0.00000000000000E+0000
 3.62591695043491E+0002 1.42343986660242E+0002 0.00000000000000E+0000
 1.20505473568802E+0002 1.08189164563547E+0002 0.00000000000000E+0000
 1.97181202151114E+0002 2.27702675340697E+0001 0.00000000000000E+0000
 1.83076756071998E+0002 1.78977898369078E+0002 0.00000000000000E+0000
 1.03041666296543E+0002 2.38868804182857E+0001 0.00000000000000E+0000
 8.25054300965276E+0001 1.49486632873770E+0002 0.00000000000000E+0000
 1.93111057879636E+0002 4.53585217678919E+0001 1.67772150000000E+0006
 2.16698275170056E+0002 1.12058853671420E+0002 1.67772150000000E+0006
 2.87496853373246E+0002 8.19241868965328E+0001 0.00000000000000E+0000
 3.71291910145199E+0002 8.96583032188937E+0000 0.00000000000000E+0000
 1.84857199874008E+0002 1.73275282769464E+0002 0.00000000000000E+0000
 1.90306906969054E+0002 7.62344361753203E+0001 0.00000000000000E+0000
 1.97878759340616E+0002 1.64626123609021E+0002 0.00000000000000E+0000
 4.38218896640232E+0002 1.74784538508859E+0002 0.00000000000000E+0000
 1.81793575196061E+0001 6.70236843125895E+0001 0.00000000000000E+0000
 4.56497923533898E+0001 1.78047833975870E+0002 0.00000000000000E+0000
 3.45713562558638E+0002 4.16934866830707E+0001 0.00000000000000E+0000
 1.34632254831260E+0002 1.04900043676607E+0001 0.00000000000000E+0000
 2.07509318307275E+0002 1.63968493471853E+0002 0.00000000000000E+0000
 4.05150524844183E+0002 1.48708067687694E+0002 0.00000000000000E+0000
 4.35313757305266E+0002 1.67597885234281E+0002 0.00000000000000E+0000
 1.96410747917136E+0002 3.02479953831062E+0000 0.00000000000000E+0000
 1.92476318458328E+0002 1.39482594997622E+0002 0.00000000000000E+0000
 1.09043916224269E+0002 1.49752099819947E+0002 0.00000000000000E+0000
 3.72147294401424E+0002 1.03134475741535E+0002 0.00000000000000E+0000
 1.86194552670931E+0002 1.30545179742854E+0002 0.00000000000000E+0000
 8.66199335495476E+0001 9.44059756910428E+0001 1.67772150000000E+0006
 1.50198262163205E+0002 5.15194441513158E+0001 0.00000000000000E+0000
 2.93394221836002E+0002 2.52871964219958E+0001 0.00000000000000E+0000
 1.51301275064936E+0002 1.42051944160368E+0002 0.00000000000000E+0000
 1.07290469138184E+0002 1.24817208779044E+0002 1.67772150000000E+0006
 1.49625107842265E+0002 8.04392751050182E+0001 0.00000000000000E+0000
 6.76908253908623E+0001 7.64065016061068E+0001 0.00000000000000E+0000
 1.86329465895658E+0002 1.19833794801961E+0002 0.00000000000000E+0000
 3.68736851386959E+0002 8.41174382893369E+0001 0.00000000000000E+0000
 3.35676513579441E+0002 1.20130037123803E+0002 5.26344000000000E+0004
 5.20612692658324E+0001 8.66995961125940E+0001 0.00000000000000E+0000
 1.35449636408826E+0002 5.77231958857737E+0001 0.00000000000000E+0000
 1.44382017689059E+0002 8.04268634254113E+0001 0.00000000000000E+0000
 8.69298204544466E+0001 1.93115540449508E+0001 0.00000000000000E+0000
 4.24036736703711E+0002 3.20331696234643E+0001 0.00000000000000E+0000
 3.28382773924386E+0002 8.41647332119755E+0001 0.00000000000000E+0000
 1.74285807293141E+0002 8.02937229415402E+0001 1.67772150000000E+0006
 1.90759915933711E+0002 1.52963847527280E+0000 0.00000000000000E+0000
 4.29962070615264E+0002 1.41048631059006E+0002 0.00000000000000E+0000
 2.21066357461503E+0002 6.30959735377692E+0001 0.00000000000000E+0000
 4.18795351928333E+0002 6.67157795177773E+0001 0.00000000000000E+0000
 3.24598999495385E+0002 9.06932011661120E+0001 0.00000000000000E+0000
 2.31489914204227E+0002 1.08589842952787E+0002 1.67772150000000E+0006
 3.05007873363560E+0002 2.06408239523880E+0001 1.50008040000000E+0006
 4.10382966429228E+0002 2.74743041349575E+0001 0.00000000000000E+0000
 2.52883848254336E+0002 4.23860388342291E-0001 0.00000000000000E+0000
 4.33262351592304E+0002 1.30443355826661E+0002 0.00000000000000E+0000
 1.33325830923161E+0002 1.30615391252097E+0002 0.00000000000000E+0000
 4.15671539360890E+0002 1.35780560449697E+0002 0.00000000000000E+0000
 2.69690582587151E+0002 3.02180513073690E+0001 1.67772150000000E+0006
 1.85780048444169E+0002 1.39391142565757E+0002 0.00000000000000E+0000
 6.24782780071255E+0001 7.78463413151912E+0001 0.00000000000000E+0000
 2.78647423643852E+0002 3.72347891693935E+0001 1.67772150000000E+0006
 4.40056931757135E+0002 7.24216353581287E+0001 0.00000000000000E+0000
 1.21458892592461E+0002 1.38575832793489E+0002 0.00000000000000E+0000
 4.67881668149494E+0000 1.52301758476999E+0002 0.00000000000000E+0000
 4.15060827179113E+0002 1.39097692427225E+0002 0.00000000000000E+0000
 4.27991999539314E+0002 1.69017009620089E+0002 0.00000000000000E+0000
 2.89874134662794E+0002 3.17844724655151E+0000 0.00000000000000E+0000
 1.08000118836527E+0002 9.20345049048774E+0001 0.00000000000000E+0000
 4.10137034731451E+0001 1.48744181571528E+0001 0.00000000000000E+0000
 3.58173529845430E+0002 8.42227161922492E+0001 0.00000000000000E+0000
 2.44192028698744E+0002 1.74086321499199E+0001 0.00000000000000E+0000
 2.35164941811701E+0002 1.89380799732171E+0001 0.00000000000000E+0000
 2.34735142262885E+0002 7.82110444689170E+0001 1.61850780000000E+0006
 2.93326723489445E+0001 6.49055515681394E+0001 1.67772150000000E+0006
 3.84788972786861E+0002 1.55807393591851E+0002 0.00000000000000E+0000
 2.90246440207120E+0001 2.83149796384387E+0001 0.00000000000000E+0000
 2.09544260140741E+0002 1.01035640230402E+0001 0.00000000000000E+0000
 5.53262481100392E+0001 7.38051760108210E+0001 0.00000000000000E+0000
 9.00581496816594E+0001 9.98623318988830E+0001 1.67772150000000E+0006
 1.17252005764748E+0001 6.12575558139943E+0001 0.00000000000000E+0000
 2.08000591179589E+0002 9.34193684058264E+0001 0.00000000000000E+0000
 1.68965152006131E+0001 2.95712229278870E+0001 0.00000000000000E+0000
 2.33403667430626E+0002 1.70935376010835E+0002 0.00000000000000E+0000
 1.41560718916124E+0002 5.98413757453673E+0001 0.00000000000000E+0000
 2.89241977557773E+0002 2.47312325043604E+0001 0.00000000000000E+0000
 3.29118434329284E+0002 1.48612908246461E+0002 0.00000000000000E+0000
 2.52422199999215E+0002 1.02503017855808E+0002 1.67772150000000E+0006
 2.97514454426011E+0002 4.31310813850723E+0001 0.00000000000000E+0000
 3.73509960184107E+0002 9.04637988815084E+0001 0.00000000000000E+0000
 2.25534434466390E+0002 1.21761139788199E+0002 1.67772150000000E+0006
 5.12721278958488E+0001 1.76709046725184E+0002 0.00000000000000E+0000
 9.48732606670819E+0000 1.03998748767655E+0002 0.00000000000000E+0000
 2.02862669322873E+0002 1.35256215091795E+0000 0.00000000000000E+0000
 3.51976678468986E+0002 2.17431266442873E+0001 0.00000000000000E+0000
 3.12301787969191E+0001 1.92297836486250E+0001 0.00000000000000E+0000
 1.16213931998005E+0002 1.45754747384693E+0002 0.00000000000000E+0000
 1.12075215218821E+0002 9.12153533520177E+0001 0.00000000000000E+0000
 1.36076828705845E+0002 4.54694885504432E+0001 0.00000000000000E+0000
 1.43435568171786E+0002 1.20451815769076E+0002 0.00000000000000E+0000
 9.28660652039107E+0001 8.25910995597951E+0001 1.67772150000000E+0006
 3.74727578722173E+0002 1.74036324325018E+0002 0.00000000000000E+0000
 2.13463312682463E+0002 1.77133865261916E+0002 0.00000000000000E+0000
 1.98821639907779E+0002 1.09962230717763E+0002 0.00000000000000E+0000
 4.35343729117652E+0002 1.41837339823600E+0002 0.00000000000000E+0000
 1.84800019136164E+0001 4.13624320859090E+0001 0.00000000000000E+0000
 7.66460886660498E+0001 1.34125025928486E+0002 0.00000000000000E+0000
 9.42350069351960E+0001 1.19351350989192E+0002 1.67772150000000E+0006
 2.67253653246677E+0002 1.02887428877875E+0000 0.00000000000000E+0000
 2.65358787293080E+0001 1.52012423201464E+0002 0.00000000000000E+0000
 3.33588911310537E+0002 1.38751478469465E+0002 0.00000000000000E+0000
 4.01742191852303E+0002 1.65327968316153E+0002 0.00000000000000E+0000
 3.57530879764818E+0000 1.77878400250338E+0001 0.00000000000000E+0000
 1.97292145585874E+0002 1.61098318164237E+0002 0.00000000000000E+0000
 1.88969097281573E+0002 1.62778578948695E+0002 0.00000000000000E+0000
 1.92123767550336E+0002 8.71470780447126E+0001 0.00000000000000E+0000
 1.31014424301451E+0002 2.75164644340985E+0001 1.67772150000000E+0006
 3.90177172005409E+0002 1.75359395767562E+0002 0.00000000000000E+0000
 4.29124790881528E+0002 1.78778140949551E+0002 0.00000000000000E+0000
 1.38555997838499E+0002 3.83501135092229E+0001 1.67772150000000E+0006
 1.28044001238188E+0002 5.29029246247374E+0001 0.00000000000000E+0000
 3.46676151240477E+0002 2.88086774805561E+0001 0.00000000000000E+0000
 2.88689729674486E+0002 1.51290544949938E+0002 0.00000000000000E+0000
 1.72479978068965E+0002 8.48176804073155E+0001 1.67772150000000E+0006
 2.06632829662180E+0002 2.92397067877464E+0001 0.00000000000000E+0000
 3.21543990899110E+0002 1.76919118231162E+0001 0.00000000000000E+0000
 2.67915510111256E+0002 1.29799347697292E+0002 1.51323900000000E+0005
 1.84658275761874E+0002 1.76134791174904E+0002 0.00000000000000E+0000
 6.46615038269665E+0001 1.74554465570953E+0002 0.00000000000000E+0000
 2.89205703569809E+0002 1.77590587409213E+0001 0.00000000000000E+0000
 1.72681353154359E+0002 8.15183915835805E+0001 1.67772150000000E+0006
 1.95419071230339E+0002 1.28268599361181E+0002 0.00000000000000E+0000
 1.30259378103073E+0001 1.35533834542147E+0001 0.00000000000000E+0000
 4.07344297446543E+0002 6.08482739804313E+0001 0.00000000000000E+0000
 4.23191369903041E+0002 6.99141402030364E+0000 0.00000000000000E+0000
 4.41087798205437E+0002 1.60558634003624E+0002 0.00000000000000E+0000
 7.42838113917969E+0000 3.73770301244222E+0001 0.00000000000000E+0000
 5.56761669537518E+0001 1.77823934638873E+0001 0.00000000000000E+0000
 3.73359327218262E+0002 1.57504156813491E+0002 0.00000000000000E+0000
 3.56062844612170E+0001 1.77019534002990E+0002 0.00000000000000E+0000
 1.60855934414780E+0002 2.61687218504958E+0001 2.63172000000000E+0005
 3.66913983371342E+0002 1.65779176643118E+0001 0.00000000000000E+0000
 3.45880913347704E+0002 8.73089755387045E+0001 1.67772150000000E+0006
 1.83393924396951E+0001 1.44956282498315E+0002 0.00000000000000E+0000
 5.47465649375226E+0001 7.45538085838780E+0000 0.00000000000000E+0000
 4.15917085459689E+0002 1.47966495980509E+0002 0.00000000000000E+0000
 2.30993503550766E+0002 1.60661948916037E+0002 0.00000000000000E+0000
 6.00691598758567E+0001 1.22891941241920E+0002 1.67772150000000E+0006
 4.24842622332042E+0002 4.93408947060816E+0001 0.00000000000000E+0000
 3.00293700846378E+0001 1.22891111206263E+0000 0.00000000000000E+0000
 1.29234257235657E+0001 8.36724881851114E+0001 0.00000000000000E+0000
 2.17644042265601E+0000 1.18807884974405E+0002 0.00000000000000E+0000
 6.97318541721907E+0001 1.55511975658592E+0002 0.00000000000000E+0000
 2.80604682842502E+0002 2.13415634343401E+0001 0.00000000000000E+0000
 4.36020726023940E+0002 7.19654464800842E+0001 0.00000000000000E+0000
 4.18010044276016E+0002 1.40696535799652E+0002 0.00000000000000E+0000
 5.10759216060396E+0001 8.10565200629644E+0001 0.00000000000000E+0000
 3.14719708685065E+0002 1.62435455373488E+0002 0.00000000000000E+0000
 2.34581434496446E+0002 1.29155728204641E+0002 0.00000000000000E+0000
 4.08443378799828E+0002 7.74265975598246E+0001 0.00000000000000E+0000
 4.34526414980879E+0002 1.55094467723276E+0002 0.00000000000000E+0000
 3.61074362544576E+0002 5.67675781436265E-0001 0.00000000000000E+0000
 2.07357330697356E+0002 1.51135398407001E+0002 0.00000000000000E+0000
 2.30618589150952E+0002 1.33920790210366E+0002 0.00000000000000E+0000
 2.99328369468218E+0002 3.32211612756364E+0001 1.67772150000000E+0006
 1.82079679958755E+0002 1.24805384310893E+0002 0.00000000000000E+0000
 2.79753209319664E+0002 1.32173292154912E+0002 1.67772150000000E+0006
 2.66878198904218E+0002 1.06460841950029E+0001 0.00000000000000E+0000
 1.22611280688783E+0002 8.57632055631839E+0001 0.00000000000000E+0000
 1.24133207695791E+0002 1.00622295790351E+0002 0.00000000000000E+0000
 2.81711645818083E+0002 1.10827123910654E+0002 0.00000000000000E+0000
 3.56884250677424E+0002 8.54164348207414E+0001 1.67772150000000E+0006
 2.80367620337522E+0002 1.72846827011090E+0002 0.00000000000000E+0000
 2.96081894379342E+0002 6.46076645990834E+0001 0.00000000000000E+0000
 4.18285262034042E+0002 3.66680969060399E+0001 0.00000000000000E+0000
 3.86924946756335E+0002 7.25080166328698E+0001 0.00000000000000E+0000
 1.35118851808598E+0002 1.50278733001556E+0002 0.00000000000000E+0000
 1.10872481113532E+0002 1.58487769042142E+0002 0.00000000000000E+0000
 9.18964918206911E+0001 1.00818012517411E+0002 1.67772150000000E+0006
 3.48408789719688E+0002 4.60869577899575E+0001 0.00000000000000E+0000
 3.92268945820397E+0002 1.15239471248816E+0002 0.00000000000000E+0000
 4.25389392107958E+0002 1.55459895725362E+0002 0.00000000000000E+0000
 4.40284846667899E+0002 8.22988796406426E+0001 0.00000000000000E+0000
 3.12546223064186E+0002 2.69495744388551E+0001 1.67772150000000E+0006
 2.32145396040520E+0002 2.97892891741358E+0001 1.67772150000000E+0006
 2.32480125302682E+0002 2.83882393036038E+0000 0.00000000000000E+0000
 3.09141681327252E+0002 6.31950240661390E+0001 0.00000000000000E+0000
 3.21218771829503E+0002 1.23575105089694E+0002 1.67772150000000E+0006
 3.92727734710788E+0002 1.70186493280809E+0002 0.00000000000000E+0000
 4.21168142993236E+0002 1.40158099895343E+0001 0.00000000000000E+0000
 4.10432459437056E+0002 1.59627697853837E+0002 0.00000000000000E+0000
 1.94035683223279E+0002 1.41490944990888E+0002 0.00000000000000E+0000
 1.34063548272243E+0002 4.90183085291646E+0001 0.00000000000000E+0000
 3.01053262455622E+0002 1.66730071661063E+0002 0.00000000000000E+0000
 2.14065191473346E+0001 1.73542188708205E+0002 0.00000000000000E+0000
 1.45578067246126E+0002 1.08950380504131E+0002 0.00000000000000E+0000
 1.53371992990142E+0002 1.54144237711560E+0002 0.00000000000000E+0000
 3.00899546571309E+0002 1.36652772503905E+0002 0.00000000000000E+0000
 8.12943387448322E+0001 7.03074293532409E+0001 0.00000000000000E+0000
 4.24830537316622E+0002 8.99228234793991E+0001 0.00000000000000E+0000
 2.75834810578963E+0002 1.69451920827385E+0002 0.00000000000000E+0000
 1.13410694452235E+0002 6.62835062528029E+0001 0.00000000000000E+0000
 1.69692302278010E+0002 1.51281069074757E+0001 0.00000000000000E+0000
 4.23800350896316E+0002 8.39654562994838E+0000 0.00000000000000E+0000
 4.14074843827402E+0002 1.24254944580607E+0001 0.00000000000000E+0000
 3.32192932065809E+0002 7.81592811932787E+0001 1.67772150000000E+0006
 9.46349651820492E+0001 1.49269272258971E+0002 0.00000000000000E+0000
 3.84324050114723E+0002 2.69939129073173E+0001 0.00000000000000E+0000
 3.26322052223375E+0002 6.85264511420391E+0001 1.67772150000000E+0006
 4.28905402859906E+0002 1.61376004536636E+0002 0.00000000000000E+0000
 2.79354819903849E+0002 1.06093449440319E+0002 0.00000000000000E+0000
 3.39061602394329E+0002 3.18991198763251E+0001 0.00000000000000E+0000
 4.08267027579015E+0002 7.93869987498038E+0001 0.00000000000000E+0000
 2.22598058387870E+0002 6.94224667949602E+0001 0.00000000000000E+0000
 5.37295615270268E+0001 7.69102450036444E+0001 0.00000000000000E+0000
 3.09678041075589E+0002 3.40984240900725E+0001 1.67772150000000E+0006
 3.89602009655675E+0002 1.23815919858869E+0002 0.00000000000000E+0000
 3.71237048933515E+0002 1.34326826156117E+0002 1.65140430000000E+0006
 1.08416853396920E+0002 1.68638457395602E+0002 0.00000000000000E+0000
 4.21212606041925E+0002 3.89328804649413E+0001 0.00000000000000E+0000
 4.05249401788926E+0002 7.16169311287813E+0001 0.00000000000000E+0000
 9.74176141361240E+0001 1.01115592858754E+0002 1.67772150000000E+0006
 1.71676592745585E+0002 4.42806863323785E+0001 1.67772150000000E+0006
 3.86353843447287E+0001 1.07963575655594E+0002 1.67772150000000E+0006
 4.18277786513558E+0002 4.42195426761173E+0001 0.00000000000000E+0000
 1.94264473615447E+0002 1.45585113567300E+0002 0.00000000000000E+0000
 4.01880676316796E+0002 1.13210442174691E+0002 0.00000000000000E+0000
 3.95591450828360E+0002 7.01493624299765E+0001 0.00000000000000E+0000
 2.29505441188579E+0002 7.21224174494855E+0001 0.00000000000000E+0000
 1.36519717596704E+0002 9.33855557469651E+0001 0.00000000000000E+0000
 2.37710265991045E+0002 1.08271755302790E+0002 1.67772150000000E+0006
 4.34332508755149E+0002 1.49337094044313E+0002 0.00000000000000E+0000
 7.37913536222186E+0001 3.51492306045257E+0001 1.67772150000000E+0006
 2.48181975355838E+0001 9.84173920387402E+0001 0.00000000000000E+0000
 7.00405544105452E+0001 1.17691285491455E+0002 1.67772150000000E+0006
 1.60836030430393E+0002 1.55064358618110E+0002 0.00000000000000E+0000
 1.50137376969214E+0001 6.65170288789086E+0001 0.00000000000000E+0000
 2.11150416743243E+0002 6.55403846343979E+0001 0.00000000000000E+0000
 3.71513030604226E+0002 8.98029312849976E+0001 0.00000000000000E+0000
 3.40111897827359E+0002 1.32674713509157E+0002 0.00000000000000E+0000
 3.74736048994353E+0002 1.53717089967337E+0002 0.00000000000000E+0000
 3.93512921011308E+0002 1.70595069651492E+0002 0.00000000000000E+0000
 7.17952456127386E+0001 1.63584939372260E+0002 0.00000000000000E+0000
 3.19696543212282E+0002 1.19745419688522E+0002 1.67772150000000E+0006
 6.55605004203971E+0001 2.22082818965428E+0001 0.00000000000000E+0000
 4.14746189236874E+0002 1.24736741508357E+0002 0.00000000000000E+0000
 4.36528078113450E+0002 1.50095139616169E+0001 0.00000000000000E+0000
 2.39334589769365E+0002 9.48276761155575E+0001 1.67772150000000E+0006
 4.28169077830156E+0002 2.59229224002920E+0001 0.00000000000000E+0000
 8.35600240475032E+0001 7.90819372991100E+0001 0.00000000000000E+0000
 1.45960500045447E+0002 1.15204926155973E+0002 0.00000000000000E+0000
 2.78479922257829E+0001 1.18499354112893E+0002 0.00000000000000E+0000
 2.68052055652952E+0002 1.48585138294380E+0002 0.00000000000000E+0000
 2.52746442426229E+0002 9.26674211686477E+0001 5.26344000000000E+0004
 3.47271842234535E+0002 1.34301233277656E+0001 0.00000000000000E+0000
 1.04192677476676E+0002 1.23730231741443E+0002 1.67772150000000E+0006
 4.18924012517324E+0002 1.18417248516343E+0001 0.00000000000000E+0000
 2.37580066336552E+0002 1.54721668687649E+0002 0.00000000000000E+0000
 1.25815600182395E+0001 1.60861838493962E+0002 0.00000000000000E+0000
 2.06702685210155E+0002 7.95597281754017E+0001 0.00000000000000E+0000
 3.99827346876031E+0002 7.12055051769130E+0001 0.00000000000000E+0000
 6.74060133474413E+0001 3.72488512275741E+0001 1.67772150000000E+0006
 3.76646498870803E+0002 3.51941996910609E+0001 1.67772150000000E+0006
 3.73521808532299E+0002 1.66087138077244E+0002 0.00000000000000E+0000
 1.28923292631051E+0002 1.78111895821057E+0001 0.00000000000000E+0000
 4.18415287258336E+0002 6.39253203356639E+0001 0.00000000000000E+0000
 1.27245660028187E+0002 1.68050839350093E+0002 0.00000000000000E+0000
 5.12227345921565E+0001 5.57743659727275E+0001 1.67772150000000E+0006
 4.35970434758579E+0002 1.77983734961133E+0002 0.00000000000000E+0000
 2.27607668724144E+0002 8.03085921099409E+0001 0.00000000000000E+0000
 1.22252466113073E+0002 1.11209503671620E+0002 0.00000000000000E+0000
 2.48613685206743E+0002 1.60611606258899E+0001 0.00000000000000E+0000
 1.38490724934032E+0002 1.18619204164948E+0002 0.00000000000000E+0000
 3.39421058802400E+0001 6.43588315742090E+0001 1.67772150000000E+0006
 2.00394526759861E+0002 1.24639162000734E+0002 0.00000000000000E+0000
 2.42732557486044E+0002 3.22928494140506E+0001 1.67772150000000E+0006
 4.09622997157043E+0002 6.93781253765337E+0001 0.00000000000000E+0000
 3.18674604967469E+0002 2.42728370530531E+0001 0.00000000000000E+0000
 1.54700904239668E+0002 7.03496162020601E+0001 0.00000000000000E+0000
 1.20285644580144E+0001 2.79605727028102E+0001 0.00000000000000E+0000
 3.45663983376464E+0002 9.36913514859043E+0001 1.67772150000000E+0006
 2.08883620957145E+0002 8.86305245468393E+0001 0.00000000000000E+0000
 3.98636879085330E+0002 3.70536100347526E+0001 0.00000000000000E+0000
 3.50731375693576E+0002 9.62540182210505E+0001 1.67772150000000E+0006
 2.72296829115367E+0002 8.55784194651060E+0001 0.00000000000000E+0000
 1.20182948176050E+0002 6.48539121067151E+0001 0.00000000000000E+0000
 8.99262157164048E+0001 1.61641438527498E+0002 0.00000000000000E+0000
 2.17407757931622E+0002 1.89266554359347E+0001 0.00000000000000E+0000
 2.73507109096041E+0002 4.92784097432159E+0001 1.67772150000000E+0006
 2.92622110931436E+0002 9.49786042096093E+0001 0.00000000000000E+0000
 3.11060928064166E+0002 9.46805735351518E+0000 0.00000000000000E+0000
 2.57705715704011E+0002 6.34734699279070E+0001 0.00000000000000E+0000
 2.01186342864996E+0002 1.18693305581342E+0002 0.00000000000000E+0000
 1.36774254136020E+0002 5.57377761332318E+0001 0.00000000000000E+0000
 2.37498545196606E+0002 4.74526922055520E+0001 1.67772150000000E+0006
 4.32286131960573E+0002 1.62621197765693E+0002 0.00000000000000E+0000
 2.71423010417959E+0002 1.35643852447625E+0002 0.00000000000000E+0000
 1.78011533932993E+0002 5.59586583310738E+0001 1.67772150000000E+0006
 1.50546876943437E+0002 1.41990948170889E+0002 0.00000000000000E+0000
 2.42941908694105E+0002 1.01310598812997E+0001 0.00000000000000E+0000
 1.24810678248759E+0001 5.39379173922353E+0001 0.00000000000000E+0000
 3.40968008321011E+0002 4.02715208074078E+0001 0.00000000000000E+0000
 1.19936279521090E+0002 1.49679419106338E+0002 0.00000000000000E+0000
 2.15904607565375E+0002 7.29139964450151E+0001 0.00000000000000E+0000
 3.44659628549125E+0001 8.32513484223746E+0001 1.67772150000000E+0006
 3.85190027779201E+0002 1.28131157492287E+0002 1.67772150000000E+0006
 1.67079421157716E+0002 6.68527970132418E+0001 1.67772150000000E+0006
 1.72338590528117E+0002 8.04584012404084E+0001 1.67772150000000E+0006
 3.62678150601452E+0002 2.98213338772766E+0001 1.67772150000000E+0006
 2.56974125892157E+0002 5.91508706165478E+0001 0.00000000000000E+0000
 1.21018547718180E+0002 9.99334814124741E+0001 0.00000000000000E+0000
 9.70226604540367E+0001 5.95703560393304E+0001 1.67772150000000E+0006
 2.51654109107098E+0002 5.95226180320606E+0000 0.00000000000000E+0000
 3.57392409974942E+0002 9.77489550868049E+0001 1.67772150000000E+0006
 6.10602483290713E+0001 1.13593688719440E+0002 1.67772150000000E+0006
 2.92192017578054E+0001 1.13426364976912E+0002 0.00000000000000E+0000
 3.73894854988670E+0002 1.55334079328459E+0002 0.00000000000000E+0000
 3.85505451698089E+0002 1.39107682860456E+0002 0.00000000000000E+0000
 5.09772100369446E+0000 8.57300616190769E+0001 0.00000000000000E+0000
 3.16730821022065E+0002 3.09385889265686E+0001 1.67772150000000E+0006
 2.31281959062209E+0002 1.18173152038361E+0002 1.67772150000000E+0006
 3.32762677712599E+0002 9.34447873206809E+0001 1.67772150000000E+0006
 1.84620538267074E+0002 1.21250778440851E+0002 0.00000000000000E+0000
 4.45144487622427E+0002 1.74432579874992E+0002 0.00000000000000E+0000
 1.76181061967975E+0002 4.61356233502738E+0001 1.67772150000000E+0006
 5.25902602749411E+0001 1.00597447651438E+0002 1.67772150000000E+0006
 1.18411912780953E+0002 2.46751625337638E+0001 0.00000000000000E+0000
 1.82631743524689E+0001 2.56375152971596E+0001 0.00000000000000E+0000
 4.43232889795443E+0002 9.01032738885842E+0001 0.00000000000000E+0000
 8.71665078720543E+0001 3.19187732124701E+0001 1.67772150000000E+0006
 6.09334629687946E+0001 6.05457916413434E+0001 0.00000000000000E+0000
 1.01724998048739E+0002 9.88932531327009E-0001 0.00000000000000E+0000
 3.20831769708311E+0002 1.70741880859714E+0002 0.00000000000000E+0000
 1.75384755846346E+0002 8.94867879142985E+0001 0.00000000000000E+0000
 3.55397478640778E+0002 5.65310727665201E+0000 0.00000000000000E+0000
 1.28098602157551E+0001 2.02439631540328E+0001 0.00000000000000E+0000
 1.44291645569494E+0002 3.18820774271153E+0001 1.67772150000000E+0006
 3.59003757020691E+0002 1.49625914593227E+0002 0.00000000000000E+0000
 3.25266866188031E+0001 1.13072524097282E+0002 0.00000000000000E+0000
 2.84433587651001E+0002 7.74090673550963E+0001 0.00000000000000E+0000
 2.99699593566125E+0002 1.19712712086271E+0002 0.00000000000000E+0000
 2.16985572323436E+0002 2.27409593863413E+0001 0.00000000000000E+0000
 1.90015163614880E+0001 6.01403928035870E+0000 0.00000000000000E+0000
 1.81329573069932E+0002 9.89802683126181E+0001 0.00000000000000E+0000
 3.67456837834558E+0002 2.97867080396973E+0001 1.67772150000000E+0006
 2.51020961413393E+0002 8.64635961065069E+0001 1.67772150000000E+0006
 2.27594865589170E+0002 2.64843418975361E+0001 1.67772150000000E+0006
 4.94179157309700E+0001 1.75495886567980E+0002 0.00000000000000E+0000
 1.93507266085362E+0002 1.32839422571938E+0002 0.00000000000000E+0000
 5.82422733048443E+0001 1.20111350617371E+0002 1.67772150000000E+0006
 3.62994365908904E+0002 1.51761422290001E+0002 0.00000000000000E+0000
 5.36206206050701E+0000 8.04017744008452E+0001 0.00000000000000E+0000
 2.06253445228329E+0002 4.44195064245723E+0001 0.00000000000000E+0000
 4.43123836992541E+0002 1.41459085208364E+0002 0.00000000000000E+0000
 4.20312148439465E+0002 9.86816814434715E+0001 0.00000000000000E+0000
 3.30312946277903E+0002 6.72290502041578E+0001 1.67772150000000E+0006
 8.51601369974669E+0001 9.23322631712072E+0001 1.67772150000000E+0006
 8.15698520767037E+0001 1.68822982969694E+0002 0.00000000000000E+0000
 4.29282109436346E+0002 7.27395403631963E+0001 0.00000000000000E+0000
 4.38840631020488E+0002 4.90843328591436E+0001 0.00000000000000E+0000
 2.51045313576004E+0002 1.70895508592483E+0002 0.00000000000000E+0000
 1.47189779388020E+0002 1.75457032167353E+0002 0.00000000000000E+0000
 3.38144675916759E+0002 1.70999549448956E+0002 0.00000000000000E+0000
 4.46053447968559E+0002 5.64524761103094E+0001 0.00000000000000E+0000
 3.67058673221385E+0002 1.45007930051070E+0002 0.00000000000000E+0000
 3.60761231612647E+0002 5.52620106181130E+0001 1.67772150000000E+0006
 3.72190712846350E+0001 6.78209978700616E+0001 1.67772150000000E+0006
 4.15904638470383E+0002 1.63311802940443E+0002 0.00000000000000E+0000
 2.14347655890277E+0002 1.75029945866670E+0002 0.00000000000000E+0000
 3.19880363917211E+0002 1.42806970064528E+0002 0.00000000000000E+0000
 4.16163080955623E+0002 6.93950229403563E+0001 0.00000000000000E+0000
 4.19686494167196E+0002 6.25618399456143E+0001 0.00000000000000E+0000
 2.60410958863562E+0002 5.74770646910183E+0001 0.00000000000000E+0000
 2.97799764573807E+0002 1.15663220549933E+0002 0.00000000000000E+0000
 9.09203179820906E+0001 9.80942194932140E+0001 1.67772150000000E+0006
 6.37119976182003E+0001 1.00763551710173E+0002 0.00000000000000E+0000
 1.32139552371344E+0002 1.15525744882877E+0002 0.00000000000000E+0000
 1.70453845584998E+0002 8.00508147934452E+0001 1.67772150000000E+0006
 3.16354988678126E+0002 4.56347492565401E+0001 1.67772150000000E+0006
 1.68183962925570E+0002 1.52192075181752E+0002 0.00000000000000E+0000
 3.57545195217943E+0002 1.93317538830452E+0001 0.00000000000000E+0000
 4.76717333088163E+0001 3.87975325649604E+0001 1.67772150000000E+0006
 2.04574158244533E+0002 4.70509502277710E+0001 0.00000000000000E+0000
 3.39251676359447E+0002 1.33201954046264E+0002 0.00000000000000E+0000
 2.24176450406900E+0002 6.11610275893472E+0001 0.00000000000000E+0000
 3.73577659083763E+0002 9.46103650601581E+0001 0.00000000000000E+0000
 1.28937516393838E+0002 1.32482446048874E+0002 0.00000000000000E+0000
 3.32550369829405E+0001 1.65904873102903E+0002 0.00000000000000E+0000
 2.47222200765973E+0002 1.79333029731642E+0002 0.00000000000000E+0000
 1.55178849853808E+0002 1.21659499275498E+0002 1.67772150000000E+0006
 3.50754642975284E+0002 1.61773755381349E+0002 0.00000000000000E+0000
 4.31156197277131E+0002 2.91598926391453E+0001 0.00000000000000E+0000
 3.07302664572140E+0002 1.69976611246821E+0002 0.00000000000000E+0000
 2.41409187933896E+0001 1.72474802383222E+0002 0.00000000000000E+0000
 2.32669773599831E+0002 4.18864012812264E+0001 1.67772150000000E+0006
 4.18158703766065E+0002 6.88761828057468E+0001 0.00000000000000E+0000
 1.62947911176598E+0002 5.98369653802365E-0001 0.00000000000000E+0000
 2.97750755932415E+0002 1.72154806106351E+0002 0.00000000000000E+0000
 2.73734065265162E+0002 4.61235205740668E+0001 1.67772150000000E+0006
 7.85141376417596E+0001 1.28628257991746E+0002 0.00000000000000E+0000
 1.02763876629760E+0002 4.44635084285401E+0001 1.67772150000000E+0006
 2.97066918781260E+0002 1.66888191093691E+0002 0.00000000000000E+0000
 2.61165361980675E+0002 1.49166973229963E+0002 0.00000000000000E+0000
 8.35162553892005E+0001 1.20583711199462E+0002 1.67772150000000E+0006
 3.96285879306262E+0002 1.49789196379017E+0002 0.00000000000000E+0000
 2.63257522955770E+0002 4.07877712948248E+0001 1.67772150000000E+0006
 2.43795460392488E+0002 6.92695173854008E+0000 0.00000000000000E+0000
 1.01682629411341E+0002 6.47434484194964E+0001 1.67772150000000E+0006
 4.37519635529956E+0002 7.77504270202480E+0001 0.00000000000000E+0000
 6.11256328022573E+0001 1.49036978335120E+0002 0.00000000000000E+0000
 3.04204875408439E+0002 1.24204090483952E+0002 0.00000000000000E+0000
 2.54123788654106E+0002 1.39494423005730E+0002 0.00000000000000E+0000
 2.63169775198912E+0002 4.22983779492788E+0001 1.67772150000000E+0006
 3.38221520225052E+0001 1.52348845890723E+0002 0.00000000000000E+0000
 2.35451058230829E+0001 4.71640751198865E+0001 0.00000000000000E+0000
 2.51099859231384E+0002 1.94748700503260E+0001 1.25664630000000E+0006
 4.22555857410422E+0002 8.47912702201866E+0001 0.00000000000000E+0000
 4.32746214298764E+0002 3.47374940635636E+0001 0.00000000000000E+0000
 3.21048399942694E+0002 9.66247519445606E+0001 0.00000000000000E+0000
 2.32764705050038E+0002 3.47520407587290E+0001 1.67772150000000E+0006
 1.99215886085993E+0002 9.34377277190797E+0001 0.00000000000000E+0000
 3.16633073918754E+0002 4.66021137563512E+0001 1.67772150000000E+0006
 6.92250212102663E+0001 1.26155737275723E+0002 1.67772150000000E+0006
 1.85097568434896E+0002 1.69312436824664E+0002 0.00000000000000E+0000
 4.42197325596353E+0002 1.05552636539097E+0002 0.00000000000000E+0000
 3.89829496400664E+0002 1.16123451047577E+0002 0.00000000000000E+0000
 7.48013830510899E-0001 1.09905268256552E+0001 0.00000000000000E+0000
 1.66022210753756E+0002 1.56864544805139E+0002 0.00000000000000E+0000
 2.79035616386449E+0002 1.68625504355412E+0002 0.00000000000000E+0000
 3.92756649118150E+0002 1.76972791566513E+0002 0.00000000000000E+0000
 5.00254683948588E+0001 5.77511050761677E+0001 1.67772150000000E+0006
 7.13553042383865E-0001 1.30954070495442E+0002 0.00000000000000E+0000
 2.26420190600446E+0002 1.22201319800224E+0002 1.67772150000000E+0006
 4.31560491925338E+0002 1.45333444868214E+0002 0.00000000000000E+0000
 4.10460287506459E+0002 6.79850546536036E+0001 0.00000000000000E+0000
 2.34091816629516E+0002 1.93916733041406E+0001 0.00000000000000E+0000
 7.65479877067264E+0001 2.45739118377678E+0001 0.00000000000000E+0000
 4.35949667781824E+0002 8.92347288085148E+0001 0.00000000000000E+0000
 4.93974514051806E+0001 1.32515165703837E+0002 0.00000000000000E+0000
 3.17504163761856E+0002 3.59932006280869E+0001 1.67772150000000E+0006
 5.21644701228943E+0001 1.38291809139308E+0002 0.00000000000000E+0000
 4.27220893377671E+0002 4.71984539190307E+0001 0.00000000000000E+0000
 2.79758783592610E+0002 7.96015452672727E+0001 0.00000000000000E+0000
 2.87593838229077E+0002 9.76324222274125E+0001 0.00000000000000E+0000
 3.13292138840770E+0002 1.12476599458139E+0002 0.00000000000000E+0000
 2.55471849758411E+0002 3.91979077821597E+0001 1.67772150000000E+0006
 4.25365216457052E+0002 1.10916226653847E+0002 0.00000000000000E+0000
 1.26356805988820E+0002 1.57606264600530E+0002 0.00000000000000E+0000
 1.56646549051395E+0002 7.69537890045904E+0001 0.00000000000000E+0000
 1.47001572950045E+0002 8.89293394060806E+0001 0.00000000000000E+0000
 3.30946556898532E+0002 9.13302788180299E+0001 1.57903200000000E+0005
 3.78385895791696E+0002 7.31254535913467E+0000 0.00000000000000E+0000
 3.67398257700261E+0001 2.81961618210189E+0001 0.00000000000000E+0000
 2.73898344584042E+0002 7.63959435997531E+0001 1.10532240000000E+0006
 3.29838751953794E+0002 2.65134157338180E+0001 0.00000000000000E+0000
 2.30243980628438E+0000 1.75240207603201E+0002 0.00000000000000E+0000
 1.50671679461142E+0002 4.10796391568147E+0001 1.67772150000000E+0006
 2.39815082522342E+0002 1.44804345347919E+0002 0.00000000000000E+0000
 1.03686544212978E+0001 9.93461057697423E+0001 0.00000000000000E+0000
 3.96375414244132E+0002 1.22272054295986E+0002 0.00000000000000E+0000
 5.66079216634389E+0001 3.94516388433985E+0001 1.67772150000000E+0006
 2.69932231482351E+0002 3.27735841860995E+0001 1.67772150000000E+0006
 2.50926288486226E+0002 8.41441810638644E+0001 1.67772150000000E+0006
 4.00328079984756E+0002 6.82999826390296E+0001 0.00000000000000E+0000
 2.19946480614832E+0002 3.05119346692227E+0001 0.00000000000000E+0000
 8.21081536619458E+0001 4.68565985755995E+0001 0.00000000000000E+0000
 3.07246153454762E+0001 1.29695946898777E+0002 0.00000000000000E+0000
 1.53332123200642E+0002 1.15152718447148E+0002 1.67772150000000E+0006
 1.23170916877454E+0002 7.90060157547705E+0001 0.00000000000000E+0000
 3.56217019364471E+0002 5.43742102785036E+0001 1.67772150000000E+0006
 8.52467988326680E+0001 1.51117910766042E+0001 0.00000000000000E+0000
 3.98189295982244E+0002 1.04836050523445E+0002 0.00000000000000E+0000
 9.13914389626589E+0001 2.12309459275566E+0001 0.00000000000000E+0000
 9.66741976237390E+0001 1.16561608732678E+0002 1.67772150000000E+0006
 4.43380971043138E+0002 1.36486293294001E+0002 0.00000000000000E+0000
 3.60700556962984E+0002 3.20855650343001E+0001 1.67772150000000E+0006
 1.28573418956017E+0002 4.85372309712693E+0000 0.00000000000000E+0000
 1.69149146829033E+0002 4.70273354267701E+0001 1.67772150000000E+0006
 3.39242497958941E+0002 6.13728345171548E+0001 1.67772150000000E+0006
 1.52227119442541E+0001 1.06231879884377E+0002 0.00000000000000E+0000
 2.34453408142319E+0002 4.45421386300586E+0001 1.67772150000000E+0006
 4.84658053501043E+0001 6.75247682752088E+0001 0.00000000000000E+0000
 5.16837450738531E+0001 8.10707063567825E+0001 0.00000000000000E+0000
 3.14125545204151E+0001 1.00378379091620E+0002 1.67772150000000E+0006
 4.14142652630573E+0002 4.14081367249601E+0001 0.00000000000000E+0000
 2.93690482162172E+0002 2.70361059932038E+0001 0.00000000000000E+0000
 2.01491343018366E+0002 1.49724720443133E+0002 0.00000000000000E+0000
 2.96158506703796E+0002 1.59891447162256E+0002 0.00000000000000E+0000
 3.80418108979007E+0002 8.52636737874709E+0001 0.00000000000000E+0000
 2.24072474709246E+0001 8.01688524717465E+0001 0.00000000000000E+0000
 2.94270953184692E+0002 1.12373178009875E+0001 0.00000000000000E+0000
 1.39699759549694E+0002 1.74203203465790E+0002 0.00000000000000E+0000
 2.89700959820068E+0002 1.34689077805262E+0002 0.00000000000000E+0000
 1.12180823337519E+0002 1.09864801152609E+0002 1.67772150000000E+0006
 8.50195333517622E+0001 1.51993178224657E+0002 0.00000000000000E+0000
 2.65932913781377E+0002 6.49267366100103E+0001 1.67772150000000E+0006
 2.76722629485419E+0002 1.60913907723036E+0002 0.00000000000000E+0000
 6.02069743035827E+0001 6.64215194033459E+0001 0.00000000000000E+0000
 1.88385103310226E+0002 1.40396329652984E+0002 0.00000000000000E+0000
 1.28906120415078E+0002 8.52838388159871E+0001 0.00000000000000E+0000
 1.28878299630946E+0002 3.15103128175251E+0001 1.67772150000000E+0006
 1.23150398016208E+0002 1.36826332892291E+0002 0.00000000000000E+0000
 1.46614010487450E+0002 1.45219757544342E+0002 0.00000000000000E+0000
 1.42500721385004E+0002 4.48452402930707E+0001 1.67772150000000E+0006
 4.41267924861750E+0002 3.88988920724951E+0001 0.00000000000000E+0000
 2.44170115852961E+0002 2.04028099635616E+0001 1.67772150000000E+0006
 2.13185695572523E+0002 2.17675142516382E+0001 0.00000000000000E+0000
 2.30300390168326E+0002 1.74583343613893E+0002 0.00000000000000E+0000
 3.35424748357153E+0002 8.26670535537414E+0001 1.67772150000000E+0006
 2.37132363546873E+0002 2.57697460120544E+0001 1.67772150000000E+0006
 1.47134958141251E+0002 1.28849328397308E+0002 0.00000000000000E+0000
 7.96477724101860E+0001 1.22374580893665E+0001 0.00000000000000E+0000
 2.34731317495694E+0002 3.96998737840913E+0001 1.67772150000000E+0006
 3.34010981811443E+0002 7.11264785844833E+0000 0.00000000000000E+0000
 3.82061722281156E+0002 7.55677142483182E+0001 0.00000000000000E+0000
 2.05888626548694E+0002 1.39915341436863E+0001 0.00000000000000E+0000
 3.09522999480134E+0002 5.51234571184032E+0001 0.00000000000000E+0000
 3.07475306965644E+0002 1.21767718124203E+0002 0.00000000000000E+0000
 2.05828302216483E+0002 1.03917581091169E+0002 0.00000000000000E+0000
 2.50803464439930E+0002 1.00464397689327E+0002 0.00000000000000E+0000
 4.02878996962449E+0002 3.00607951185666E+0001 0.00000000000000E+0000
 2.97665561558912E+0002 1.51118339606561E+0002 0.00000000000000E+0000
 1.02944167933194E+0002 3.91983426068909E+0001 1.67772150000000E+0006
 3.26226691982942E+0002 2.40124845020473E+0001 0.00000000000000E+0000
 9.61008636688348E+0001 1.16200125928502E+0002 1.67772150000000E+0006
 2.14155744996155E+0002 9.98040596535429E+0001 1.67772150000000E+0006
 2.13638210803969E+0002 1.52238526246045E+0002 0.00000000000000E+0000
 3.88532497447450E+0001 1.09345074595883E+0002 1.67772150000000E+0006
 2.54878520024708E+0002 4.51757936491631E+0001 0.00000000000000E+0000
 3.95104024162749E+0002 8.22420745389536E+0001 0.00000000000000E+0000
 2.73618509213207E+0002 1.32432882603724E+0002 5.26344000000000E+0004
 1.13232753585325E+0002 1.44520265981555E+0001 0.00000000000000E+0000
 2.45143768779701E+0002 7.76160771353170E+0000 0.00000000000000E+0000
 3.94590624049539E+0002 3.94612138373777E+0001 0.00000000000000E+0000
 1.40519594182028E+0002 1.53591994794551E+0002 0.00000000000000E+0000
 3.54951135282638E+0002 3.68440121244639E+0001 0.00000000000000E+0000
 2.05611310632667E+0002 5.87670226162300E+0000 0.00000000000000E+0000
 3.68143218377838E+0002 1.02484247991815E+0001 0.00000000000000E+0000
 1.30372149932663E+0001 5.06043878276832E+0001 0.00000000000000E+0000
 2.11999783157604E+0002 7.81052501536906E+0001 0.00000000000000E+0000
 3.31007259856677E+0002 3.04038955154829E+0001 0.00000000000000E+0000
 1.39449820224429E+0002 5.16077567255124E+0001 0.00000000000000E+0000
 3.42750604816480E+0002 4.59111379818060E+0001 0.00000000000000E+0000
 1.46332182699116E+0002 6.77587414029986E+0001 0.00000000000000E+0000
 2.94985159924021E+0002 1.59820549154188E+0002 0.00000000000000E+0000
 4.18259172646562E+0002 1.70531845343299E+0002 0.00000000000000E+0000
 9.76322463329416E+0001 1.29792982180137E+0002 0.00000000000000E+0000
 2.39608057189034E+0002 3.64440027028322E+0001 1.67772150000000E+0006
 1.53729499131208E+0002 3.66419276888482E+0001 1.67772150000000E+0006
 3.58468639306957E+0002 8.60858971802518E+0001 0.00000000000000E+0000
 8.22451373606455E+0001 8.54699273654260E+0001 1.63166640000000E+0006
 5.61250083271880E+0001 1.94073013719171E+0001 0.00000000000000E+0000
 4.82467262239661E+0001 7.46770578376018E+0001 0.00000000000000E+0000
 3.96399595098803E+0002 8.88041739398614E+0001 0.00000000000000E+0000
 1.39627556479303E+0002 1.59013359874953E+0002 0.00000000000000E+0000
 2.09937656856375E+0002 1.52304389592260E+0002 0.00000000000000E+0000
 4.63437660222407E+0001 5.30970879006199E+0001 1.67772150000000E+0006
 8.82603167707566E+0001 1.01398976876400E+0002 1.67772150000000E+0006
 6.88653286553454E+0001 2.10706548155285E+0001 0.00000000000000E+0000
 2.72164283187361E+0002 5.43157387841493E+0001 1.67772150000000E+0006
 1.24294035045197E+0002 1.65316147135105E+0002 0.00000000000000E+0000
