 1.00000000000000E+0001 1.70000000000000E+0002 0.00000000000000E+0000
 1.00000000000000E+0001 1.80000000000000E+0002 0.00000000000000E+0000
 2.00000000000000E+0001 0.00000000000000E+0000 0.00000000000000E+0000
 2.00000000000000E+0001 1.00000000000000E+0001 0.00000000000000E+0000
 2.00000000000000E+0001 2.00000000000000E+0001 0.00000000000000E+0000
 2.00000000000000E+0001 3.00000000000000E+0001 0.00000000000000E+0000
 2.00000000000000E+0001 4.00000000000000E+0001 0.00000000000000E+0000
 2.00000000000000E+0001 5.00000000000000E+0001 0.00000000000000E+0000
 2.00000000000000E+0001 6.00000000000000E+0001 0.00000000000000E+0000
 2.00000000000000E+0001 7.00000000000000E+0001 0.00000000000000E+0000
 2.00000000000000E+0001 8.00000000000000E+0001 0.00000000000000E+0000
 2.00000000000000E+0001 9.00000000000000E+0001 0.00000000000000E+0000
 2.00000000000000E+0001 1.00000000000000E+0002 0.00000000000000E+0000
 2.00000000000000E+0001 1.10000000000000E+0002 0.00000000000000E+0000
 2.00000000000000E+0001 1.20000000000000E+0002 0.00000000000000E+0000
 2.00000000000000E+0001 1.30000000000000E+0002 0.00000000000000E+0000
 2.00000000000000E+0001 1.40000000000000E+0002 0.00000000000000E+0000
 2.00000000000000E+0001 1.50000000000000E+0002 0.00000000000000E+0000
 2.00000000000000E+0001 1.60000000000000E+0002 0.00000000000000E+0000
 2.00000000000000E+0001 1.70000000000000E+0002 0.00000000000000E+0000
 2.00000000000000E+0001 1.80000000000000E+0002 0.00000000000000E+0000
 3.00000000000000E+0001 0.00000000000000E+0000 0.00000000000000E+0000
 3.00000000000000E+0001 1.00000000000000E+0001 0.00000000000000E+0000
 3.00000000000000E+0001 2.00000000000000E+0001 0.00000000000000E+0000
 3.00000000000000E+0001 3.00000000000000E+0001 0.00000000000000E+0000
 3.00000000000000E+0001 4.00000000000000E+0001 0.00000000000000E+0000
 3.00000000000000E+0001 5.00000000000000E+0001 0.00000000000000E+0000
 3.00000000000000E+0001 6.00000000000000E+0001 1.67772150000000E+0006
 3.00000000000000E+0001 7.00000000000000E+0001 1.67772150000000E+0006
 3.00000000000000E+0001 8.00000000000000E+0001 1.67772150000000E+0006
 3.00000000000000E+0001 9.00000000000000E+0001 1.67772150000000E+0006
 3.00000000000000E+0001 1.00000000000000E+0002 1.67772150000000E+0006
 3.00000000000000E+0001 1.10000000000000E+0002 0.00000000000000E+0000
 3.00000000000000E+0001 1.20000000000000E+0002 0.00000000000000E+0000
 3.00000000000000E+0001 1.30000000000000E+0002 0.00000000000000E+0000
 3.00000000000000E+0001 1.40000000000000E+0002 0.00000000000000E+0000
 3.00000000000000E+0001 1.50000000000000E+0002 0.00000000000000E+0000
 3.00000000000000E+0001 1.60000000000000E+0002 0.00000000000000E+0000
 3.00000000000000E+0001 1.70000000000000E+0002 0.00000000000000E+0000
 3.00000000000000E+0001 1.80000000000000E+0002 0.00000000000000E+0000
 4.00000000000000E+0001 0.00000000000000E+0000 0.00000000000000E+0000
 4.00000000000000E+0001 1.00000000000000E+0001 0.00000000000000E+0000
 4.00000000000000E+0001 2.00000000000000E+0001 0.00000000000000E+0000
 4.00000000000000E+0001 3.00000000000000E+0001 0.00000000000000E+0000
 4.00000000000000E+0001 4.00000000000000E+0001 0.00000000000000E+0000
 4.00000000000000E+0001 5.00000000000000E+0001 1.67772150000000E+0006
 4.00000000000000E+0001 6.00000000000000E+0001 1.67772150000000E+0006
 4.00000000000000E+0001 7.00000000000000E+0001 1.67772150000000E+0006
 4.00000000000000E+0001 8.00000000000000E+0001 1.67772150000000E+0006
 4.00000000000000E+0001 9.00000000000000E+0001 1.67772150000000E+0006
 4.00000000000000E+0001 1.00000000000000E+0002 1.67772150000000E+0006
 4.00000000000000E+0001 1.10000000000000E+0002 1.67772150000000E+0006
 4.00000000000000E+0001 1.20000000000000E+0002 0.00000000000000E+0000
 4.00000000000000E+0001 1.30000000000000E+0002 0.00000000000000E+0000
 4.00000000000000E+0001 1.40000000000000E+0002 0.00000000000000E+0000
 4.00000000000000E+0001 1.50000000000000E+0002 0.00000000000000E+0000
 4.00000000000000E+0001 1.60000000000000E+0002 0.00000000000000E+0000
 4.00000000000000E+0001 1.70000000000000E+0002 0.00000000000000E+0000
 4.00000000000000E+0001 1.80000000000000E+0002 0.00000000000000E+0000
 5.00000000000000E+0001 0.00000000000000E+0000 0.00000000000000E+0000
 5.00000000000000E+0001 1.00000000000000E+0001 0.00000000000000E+0000
 5.00000000000000E+0001 2.00000000000000E+0001 0.00000000000000E+0000
 5.00000000000000E+0001 3.00000000000000E+0001 0.00000000000000E+0000
 5.00000000000000E+0001 4.00000000000000E+0001 1.67772150000000E+0006
 5.00000000000000E+0001 5.00000000000000E+0001 1.67772150000000E+0006
 5.00000000000000E+0001 6.00000000000000E+0001 1.67772150000000E+0006
 5.00000000000000E+0001 7.00000000000000E+0001 0.00000000000000E+0000
 5.00000000000000E+0001 8.00000000000000E+0001 0.00000000000000E+0000
 5.00000000000000E+0001 9.00000000000000E+0001 0.00000000000000E+0000
 5.00000000000000E+0001 1.00000000000000E+0002 1.67772150000000E+0006
 5.00000000000000E+0001 1.10000000000000E+0002 1.67772150000000E+0006
 5.00000000000000E+0001 1.20000000000000E+0002 1.37507370000000E+0006
 5.00000000000000E+0001 1.30000000000000E+0002 0.00000000000000E+0000
 5.00000000000000E+0001 1.40000000000000E+0002 0.00000000000000E+0000
 5.00000000000000E+0001 1.50000000000000E+0002 0.00000000000000E+0000
 5.00000000000000E+0001 1.60000000000000E+0002 0.00000000000000E+0000
 5.00000000000000E+0001 1.70000000000000E+0002 0.00000000000000E+0000
 5.00000000000000E+0001 1.80000000000000E+0002 0.00000000000000E+0000
 6.00000000000000E+0001 0.00000000000000E+0000 0.00000000000000E+0000
 6.00000000000000E+0001 1.00000000000000E+0001 0.00000000000000E+0000
 6.00000000000000E+0001 2.00000000000000E+0001 0.00000000000000E+0000
 6.00000000000000E+0001 3.00000000000000E+0001 1.67772150000000E+0006
 6.00000000000000E+0001 4.00000000000000E+0001 1.67772150000000E+0006
 6.00000000000000E+0001 5.00000000000000E+0001 5.59240500000000E+0005
 6.00000000000000E+0001 6.00000000000000E+0001 0.00000000000000E+0000
 6.00000000000000E+0001 7.00000000000000E+0001 0.00000000000000E+0000
 6.00000000000000E+0001 8.00000000000000E+0001 0.00000000000000E+0000
 6.00000000000000E+0001 9.00000000000000E+0001 1.67772150000000E+0006
 6.00000000000000E+0001 1.00000000000000E+0002 0.00000000000000E+0000
 6.00000000000000E+0001 1.10000000000000E+0002 1.67772150000000E+0006
 6.00000000000000E+0001 1.20000000000000E+0002 1.67772150000000E+0006
 6.00000000000000E+0001 1.30000000000000E+0002 0.00000000000000E+0000
 6.00000000000000E+0001 1.40000000000000E+0002 0.00000000000000E+0000
 6.00000000000000E+0001 1.50000000000000E+0002 0.00000000000000E+0000
 6.00000000000000E+0001 1.60000000000000E+0002 0.00000000000000E+0000
 6.00000000000000E+0001 1.70000000000000E+0002 0.00000000000000E+0000
 6.00000000000000E+0001 1.80000000000000E+0002 0.00000000000000E+0000
 7.00000000000000E+0001 0.00000000000000E+0000 0.00000000000000E+0000
 7.00000000000000E+0001 1.00000000000000E+0001 0.00000000000000E+0000
 7.00000000000000E+0001 2.00000000000000E+0001 0.00000000000000E+0000
 7.00000000000000E+0001 3.00000000000000E+0001 1.67772150000000E+0006
 7.00000000000000E+0001 4.00000000000000E+0001 1.67772150000000E+0006
 7.00000000000000E+0001 5.00000000000000E+0001 0.00000000000000E+0000
 7.00000000000000E+0001 6.00000000000000E+0001 0.00000000000000E+0000
 7.00000000000000E+0001 7.00000000000000E+0001 0.00000000000000E+0000
 7.00000000000000E+0001 8.00000000000000E+0001 1.67772150000000E+0006
 7.00000000000000E+0001 9.00000000000000E+0001 1.67772150000000E+0006
 7.00000000000000E+0001 1.00000000000000E+0002 1.67772150000000E+0006
 7.00000000000000E+0001 1.10000000000000E+0002 1.67772150000000E+0006
 7.00000000000000E+0001 1.20000000000000E+0002 1.67772150000000E+0006
 7.00000000000000E+0001 1.30000000000000E+0002 0.00000000000000E+0000
 7.00000000000000E+0001 1.40000000000000E+0002 0.00000000000000E+0000
 7.00000000000000E+0001 1.50000000000000E+0002 0.00000000000000E+0000
 7.00000000000000E+0001 1.60000000000000E+0002 0.00000000000000E+0000
 7.00000000000000E+0001 1.70000000000000E+0002 0.00000000000000E+0000
 7.00000000000000E+0001 1.80000000000000E+0002 0.00000000000000E+0000
 8.00000000000000E+0001 0.00000000000000E+0000 0.00000000000000E+0000
 8.00000000000000E+0001 1.00000000000000E+0001 0.00000000000000E+0000
 8.00000000000000E+0001 2.00000000000000E+0001 0.00000000000000E+0000
 8.00000000000000E+0001 3.00000000000000E+0001 1.67772150000000E+0006
 8.00000000000000E+0001 4.00000000000000E+0001 1.67772150000000E+0006
 8.00000000000000E+0001 5.00000000000000E+0001 0.00000000000000E+0000
 8.00000000000000E+0001 6.00000000000000E+0001 0.00000000000000E+0000
 8.00000000000000E+0001 7.00000000000000E+0001 0.00000000000000E+0000
 8.00000000000000E+0001 8.00000000000000E+0001 0.00000000000000E+0000
 8.00000000000000E+0001 9.00000000000000E+0001 1.67772150000000E+0006
 8.00000000000000E+0001 1.00000000000000E+0002 1.67772150000000E+0006
 8.00000000000000E+0001 1.10000000000000E+0002 1.67772150000000E+0006
 8.00000000000000E+0001 1.20000000000000E+0002 1.67772150000000E+0006
 8.00000000000000E+0001 1.30000000000000E+0002 0.00000000000000E+0000
 8.00000000000000E+0001 1.40000000000000E+0002 0.00000000000000E+0000
 8.00000000000000E+0001 1.50000000000000E+0002 0.00000000000000E+0000
 8.00000000000000E+0001 1.60000000000000E+0002 0.00000000000000E+0000
 8.00000000000000E+0001 1.70000000000000E+0002 0.00000000000000E+0000
 8.00000000000000E+0001 1.80000000000000E+0002 0.00000000000000E+0000
 9.00000000000000E+0001 0.00000000000000E+0000 0.00000000000000E+0000
 9.00000000000000E+0001 1.00000000000000E+0001 0.00000000000000E+0000
 9.00000000000000E+0001 2.00000000000000E+0001 0.00000000000000E+0000
 9.00000000000000E+0001 3.00000000000000E+0001 1.67772150000000E+0006
 9.00000000000000E+0001 4.00000000000000E+0001 1.67772150000000E+0006
 9.00000000000000E+0001 5.00000000000000E+0001 1.67772150000000E+0006
 9.00000000000000E+0001 6.00000000000000E+0001 1.67772150000000E+0006
 9.00000000000000E+0001 7.00000000000000E+0001 1.67772150000000E+0006
 9.00000000000000E+0001 8.00000000000000E+0001 1.67772150000000E+0006
 9.00000000000000E+0001 9.00000000000000E+0001 1.67772150000000E+0006
 9.00000000000000E+0001 1.00000000000000E+0002 1.67772150000000E+0006
 9.00000000000000E+0001 1.10000000000000E+0002 1.67772150000000E+0006
 9.00000000000000E+0001 1.20000000000000E+0002 1.67772150000000E+0006
 9.00000000000000E+0001 1.30000000000000E+0002 0.00000000000000E+0000
 9.00000000000000E+0001 1.40000000000000E+0002 0.00000000000000E+0000
 9.00000000000000E+0001 1.50000000000000E+0002 0.00000000000000E+0000
 9.00000000000000E+0001 1.60000000000000E+0002 0.00000000000000E+0000
 9.00000000000000E+0001 1.70000000000000E+0002 0.00000000000000E+0000
 9.00000000000000E+0001 1.80000000000000E+0002 0.00000000000000E+0000
 1.00000000000000E+0002 0.00000000000000E+0000 0.00000000000000E+0000
 1.00000000000000E+0002 1.00000000000000E+0001 0.00000000000000E+0000
 1.00000000000000E+0002 2.00000000000000E+0001 0.00000000000000E+0000
 1.00000000000000E+0002 3.00000000000000E+0001 0.00000000000000E+0000
 1.00000000000000E+0002 4.00000000000000E+0001 1.67772150000000E+0006
 1.00000000000000E+0002 5.00000000000000E+0001 1.67772150000000E+0006
 1.00000000000000E+0002 6.00000000000000E+0001 1.67772150000000E+0006
 1.00000000000000E+0002 7.00000000000000E+0001 1.67772150000000E+0006
 1.00000000000000E+0002 8.00000000000000E+0001 1.67772150000000E+0006
 1.00000000000000E+0002 9.00000000000000E+0001 1.67772150000000E+0006
 1.00000000000000E+0002 1.00000000000000E+0002 1.67772150000000E+0006
 1.00000000000000E+0002 1.10000000000000E+0002 1.67772150000000E+0006
 1.00000000000000E+0002 1.20000000000000E+0002 1.67772150000000E+0006
 1.00000000000000E+0002 1.30000000000000E+0002 0.00000000000000E+0000
 1.00000000000000E+0002 1.40000000000000E+0002 0.00000000000000E+0000
 1.00000000000000E+0002 1.50000000000000E+0002 0.00000000000000E+0000
 1.00000000000000E+0002 1.60000000000000E+0002 0.00000000000000E+0000
 1.00000000000000E+0002 1.70000000000000E+0002 0.00000000000000E+0000
 1.00000000000000E+0002 1.80000000000000E+0002 0.00000000000000E+0000
 1.10000000000000E+0002 0.00000000000000E+0000 0.00000000000000E+0000
 1.10000000000000E+0002 1.00000000000000E+0001 0.00000000000000E+0000
 1.10000000000000E+0002 2.00000000000000E+0001 0.00000000000000E+0000
 1.10000000000000E+0002 3.00000000000000E+0001 0.00000000000000E+0000
 1.10000000000000E+0002 4.00000000000000E+0001 0.00000000000000E+0000
 1.10000000000000E+0002 5.00000000000000E+0001 0.00000000000000E+0000
 1.10000000000000E+0002 6.00000000000000E+0001 0.00000000000000E+0000
 1.10000000000000E+0002 7.00000000000000E+0001 0.00000000000000E+0000
 1.10000000000000E+0002 8.00000000000000E+0001 0.00000000000000E+0000
 1.10000000000000E+0002 9.00000000000000E+0001 0.00000000000000E+0000
 1.10000000000000E+0002 1.00000000000000E+0002 0.00000000000000E+0000
 1.10000000000000E+0002 1.10000000000000E+0002 1.67772150000000E+0006
 1.10000000000000E+0002 1.20000000000000E+0002 1.67772150000000E+0006
 1.10000000000000E+0002 1.30000000000000E+0002 0.00000000000000E+0000
 1.10000000000000E+0002 1.40000000000000E+0002 0.00000000000000E+0000
 1.10000000000000E+0002 1.50000000000000E+0002 0.00000000000000E+0000
 1.10000000000000E+0002 1.60000000000000E+0002 0.00000000000000E+0000
 1.10000000000000E+0002 1.70000000000000E+0002 0.00000000000000E+0000
 1.10000000000000E+0002 1.80000000000000E+0002 0.00000000000000E+0000
 1.20000000000000E+0002 0.00000000000000E+0000 0.00000000000000E+0000
 1.20000000000000E+0002 1.00000000000000E+0001 0.00000000000000E+0000
 1.20000000000000E+0002 2.00000000000000E+0001 0.00000000000000E+0000
 1.20000000000000E+0002 3.00000000000000E+0001 0.00000000000000E+0000
 1.20000000000000E+0002 4.00000000000000E+0001 0.00000000000000E+0000
 1.20000000000000E+0002 5.00000000000000E+0001 0.00000000000000E+0000
 1.20000000000000E+0002 6.00000000000000E+0001 0.00000000000000E+0000
 1.20000000000000E+0002 7.00000000000000E+0001 0.00000000000000E+0000
 1.20000000000000E+0002 8.00000000000000E+0001 0.00000000000000E+0000
 1.20000000000000E+0002 9.00000000000000E+0001 0.00000000000000E+0000
 1.20000000000000E+0002 1.00000000000000E+0002 0.00000000000000E+0000
 1.20000000000000E+0002 1.10000000000000E+0002 0.00000000000000E+0000
 1.20000000000000E+0002 1.20000000000000E+0002 8.42150400000000E+0005
 1.20000000000000E+0002 1.30000000000000E+0002 0.00000000000000E+0000
 1.20000000000000E+0002 1.40000000000000E+0002 0.00000000000000E+0000
 1.20000000000000E+0002 1.50000000000000E+0002 0.00000000000000E+0000
 1.20000000000000E+0002 1.60000000000000E+0002 0.00000000000000E+0000
 1.20000000000000E+0002 1.70000000000000E+0002 0.00000000000000E+0000
 1.20000000000000E+0002 1.80000000000000E+0002 0.00000000000000E+0000
 1.30000000000000E+0002 0.00000000000000E+0000 0.00000000000000E+0000
 1.30000000000000E+0002 1.00000000000000E+0001 0.00000000000000E+0000
 1.30000000000000E+0002 2.00000000000000E+0001 0.00000000000000E+0000
 1.30000000000000E+0002 3.00000000000000E+0001 1.67772150000000E+0006
 1.30000000000000E+0002 4.00000000000000E+0001 1.67772150000000E+0006
 1.30000000000000E+0002 5.00000000000000E+0001 0.00000000000000E+0000
 1.30000000000000E+0002 6.00000000000000E+0001 0.00000000000000E+0000
 1.30000000000000E+0002 7.00000000000000E+0001 0.00000000000000E+0000
 1.30000000000000E+0002 8.00000000000000E+0001 0.00000000000000E+0000
 1.30000000000000E+0002 9.00000000000000E+0001 0.00000000000000E+0000
 1.30000000000000E+0002 1.00000000000000E+0002 0.00000000000000E+0000
 1.30000000000000E+0002 1.10000000000000E+0002 0.00000000000000E+0000
 1.30000000000000E+0002 1.20000000000000E+0002 0.00000000000000E+0000
 1.30000000000000E+0002 1.30000000000000E+0002 0.00000000000000E+0000
 1.30000000000000E+0002 1.40000000000000E+0002 0.00000000000000E+0000
 1.30000000000000E+0002 1.50000000000000E+0002 0.00000000000000E+0000
 1.30000000000000E+0002 1.60000000000000E+0002 0.00000000000000E+0000
 1.30000000000000E+0002 1.70000000000000E+0002 0.00000000000000E+0000
 1.30000000000000E+0002 1.80000000000000E+0002 0.00000000000000E+0000
 1.40000000000000E+0002 0.00000000000000E+0000 0.00000000000000E+0000
 1.40000000000000E+0002 1.00000000000000E+0001 0.00000000000000E+0000
 1.40000000000000E+0002 2.00000000000000E+0001 0.00000000000000E+0000
 1.40000000000000E+0002 3.00000000000000E+0001 1.67772150000000E+0006
 1.40000000000000E+0002 4.00000000000000E+0001 1.67772150000000E+0006
 1.40000000000000E+0002 5.00000000000000E+0001 0.00000000000000E+0000
 1.40000000000000E+0002 6.00000000000000E+0001 0.00000000000000E+0000
 1.40000000000000E+0002 7.00000000000000E+0001 0.00000000000000E+0000
 1.40000000000000E+0002 8.00000000000000E+0001 0.00000000000000E+0000
 1.40000000000000E+0002 9.00000000000000E+0001 0.00000000000000E+0000
 1.40000000000000E+0002 1.00000000000000E+0002 0.00000000000000E+0000
 1.40000000000000E+0002 1.10000000000000E+0002 0.00000000000000E+0000
 1.40000000000000E+0002 1.20000000000000E+0002 0.00000000000000E+0000
 1.40000000000000E+0002 1.30000000000000E+0002 0.00000000000000E+0000
 1.40000000000000E+0002 1.40000000000000E+0002 0.00000000000000E+0000
 1.40000000000000E+0002 1.50000000000000E+0002 0.00000000000000E+0000
 1.40000000000000E+0002 1.60000000000000E+0002 0.00000000000000E+0000
 1.40000000000000E+0002 1.70000000000000E+0002 0.00000000000000E+0000
 1.40000000000000E+0002 1.80000000000000E+0002 0.00000000000000E+0000
 1.50000000000000E+0002 0.00000000000000E+0000 0.00000000000000E+0000
 1.50000000000000E+0002 1.00000000000000E+0001 0.00000000000000E+0000
 1.50000000000000E+0002 2.00000000000000E+0001 0.00000000000000E+0000
 1.50000000000000E+0002 3.00000000000000E+0001 1.67772150000000E+0006
 1.50000000000000E+0002 4.00000000000000E+0001 1.67772150000000E+0006
 1.50000000000000E+0002 5.00000000000000E+0001 0.00000000000000E+0000
 1.50000000000000E+0002 6.00000000000000E+0001 0.00000000000000E+0000
 1.50000000000000E+0002 7.00000000000000E+0001 0.00000000000000E+0000
 1.50000000000000E+0002 8.00000000000000E+0001 0.00000000000000E+0000
 1.50000000000000E+0002 9.00000000000000E+0001 0.00000000000000E+0000
 1.50000000000000E+0002 1.00000000000000E+0002 1.67772150000000E+0006
 1.50000000000000E+0002 1.10000000000000E+0002 1.67772150000000E+0006
 1.50000000000000E+0002 1.20000000000000E+0002 1.67772150000000E+0006
 1.50000000000000E+0002 1.30000000000000E+0002 0.00000000000000E+0000
 1.50000000000000E+0002 1.40000000000000E+0002 0.00000000000000E+0000
 1.50000000000000E+0002 1.50000000000000E+0002 0.00000000000000E+0000
 1.50000000000000E+0002 1.60000000000000E+0002 0.00000000000000E+0000
 1.50000000000000E+0002 1.70000000000000E+0002 0.00000000000000E+0000
 1.50000000000000E+0002 1.80000000000000E+0002 0.00000000000000E+0000
 1.60000000000000E+0002 0.00000000000000E+0000 0.00000000000000E+0000
 1.60000000000000E+0002 1.00000000000000E+0001 0.00000000000000E+0000
 1.60000000000000E+0002 2.00000000000000E+0001 0.00000000000000E+0000
 1.60000000000000E+0002 3.00000000000000E+0001 1.67772150000000E+0006
 1.60000000000000E+0002 4.00000000000000E+0001 1.67772150000000E+0006
 1.60000000000000E+0002 5.00000000000000E+0001 0.00000000000000E+0000
 1.60000000000000E+0002 6.00000000000000E+0001 0.00000000000000E+0000
 1.60000000000000E+0002 7.00000000000000E+0001 0.00000000000000E+0000
 1.60000000000000E+0002 8.00000000000000E+0001 1.67772150000000E+0006
 1.60000000000000E+0002 9.00000000000000E+0001 1.67772150000000E+0006
 1.60000000000000E+0002 1.00000000000000E+0002 1.67772150000000E+0006
 1.60000000000000E+0002 1.10000000000000E+0002 1.67772150000000E+0006
 1.60000000000000E+0002 1.20000000000000E+0002 1.67772150000000E+0006
 1.60000000000000E+0002 1.30000000000000E+0002 0.00000000000000E+0000
 1.60000000000000E+0002 1.40000000000000E+0002 0.00000000000000E+0000
 1.60000000000000E+0002 1.50000000000000E+0002 0.00000000000000E+0000
 1.60000000000000E+0002 1.60000000000000E+0002 0.00000000000000E+0000
 1.60000000000000E+0002 1.70000000000000E+0002 0.00000000000000E+0000
 1.60000000000000E+0002 1.80000000000000E+0002 0.00000000000000E+0000
 1.70000000000000E+0002 0.00000000000000E+0000 0.00000000000000E+0000
 1.70000000000000E+0002 1.00000000000000E+0001 0.00000000000000E+0000
 1.70000000000000E+0002 2.00000000000000E+0001 0.00000000000000E+0000
 1.70000000000000E+0002 3.00000000000000E+0001 1.67772150000000E+0006
 1.70000000000000E+0002 4.00000000000000E+0001 1.67772150000000E+0006
 1.70000000000000E+0002 5.00000000000000E+0001 5.26344000000000E+0004
 1.70000000000000E+0002 6.00000000000000E+0001 1.67772150000000E+0006
 1.70000000000000E+0002 7.00000000000000E+0001 1.67772150000000E+0006
 1.70000000000000E+0002 8.00000000000000E+0001 1.67772150000000E+0006
 1.70000000000000E+0002 9.00000000000000E+0001 1.67772150000000E+0006
 1.70000000000000E+0002 1.00000000000000E+0002 1.57903200000000E+0005
 1.70000000000000E+0002 1.10000000000000E+0002 0.00000000000000E+0000
 1.70000000000000E+0002 1.20000000000000E+0002 0.00000000000000E+0000
 1.70000000000000E+0002 1.30000000000000E+0002 0.00000000000000E+0000
 1.70000000000000E+0002 1.40000000000000E+0002 0.00000000000000E+0000
 1.70000000000000E+0002 1.50000000000000E+0002 0.00000000000000E+0000
 1.70000000000000E+0002 1.60000000000000E+0002 0.00000000000000E+0000
 1.70000000000000E+0002 1.70000000000000E+0002 0.00000000000000E+0000
 1.70000000000000E+0002 1.80000000000000E+0002 0.00000000000000E+0000
 1.80000000000000E+0002 0.00000000000000E+0000 0.00000000000000E+0000
 1.80000000000000E+0002 1.00000000000000E+0001 0.00000000000000E+0000
 1.80000000000000E+0002 2.00000000000000E+0001 0.00000000000000E+0000
 1.80000000000000E+0002 3.00000000000000E+0001 1.67772150000000E+0006
 1.80000000000000E+0002 4.00000000000000E+0001 1.67772150000000E+0006
 1.80000000000000E+0002 5.00000000000000E+0001 1.67772150000000E+0006
 1.80000000000000E+0002 6.00000000000000E+0001 1.67772150000000E+0006
 1.80000000000000E+0002 7.00000000000000E+0001 1.67772150000000E+0006
 1.80000000000000E+0002 8.00000000000000E+0001 0.00000000000000E+0000
 1.80000000000000E+0002 9.00000000000000E+0001 0.00000000000000E+0000
 1.80000000000000E+0002 1.00000000000000E+0002 0.00000000000000E+0000
 1.80000000000000E+0002 1.10000000000000E+0002 0.00000000000000E+0000
 1.80000000000000E+0002 1.20000000000000E+0002 0.00000000000000E+0000
 1.80000000000000E+0002 1.30000000000000E+0002 0.00000000000000E+0000
 1.80000000000000E+0002 1.40000000000000E+0002 0.00000000000000E+0000
 1.80000000000000E+0002 1.50000000000000E+0002 0.00000000000000E+0000
 1.80000000000000E+0002 1.60000000000000E+0002 0.00000000000000E+0000
 1.80000000000000E+0002 1.70000000000000E+0002 0.00000000000000E+0000
 1.80000000000000E+0002 1.80000000000000E+0002 0.00000000000000E+0000
 1.90000000000000E+0002 0.00000000000000E+0000 0.00000000000000E+0000
 1.90000000000000E+0002 1.00000000000000E+0001 0.00000000000000E+0000
 1.90000000000000E+0002 2.00000000000000E+0001 0.00000000000000E+0000
 1.90000000000000E+0002 3.00000000000000E+0001 1.67772150000000E+0006
 1.90000000000000E+0002 4.00000000000000E+0001 1.67772150000000E+0006
 1.90000000000000E+0002 5.00000000000000E+0001 1.67772150000000E+0006
 1.90000000000000E+0002 6.00000000000000E+0001 1.67772150000000E+0006
 1.90000000000000E+0002 7.00000000000000E+0001 0.00000000000000E+0000
 1.90000000000000E+0002 8.00000000000000E+0001 0.00000000000000E+0000
 1.90000000000000E+0002 9.00000000000000E+0001 0.00000000000000E+0000
 1.90000000000000E+0002 1.00000000000000E+0002 0.00000000000000E+0000
 1.90000000000000E+0002 1.10000000000000E+0002 0.00000000000000E+0000
 1.90000000000000E+0002 1.20000000000000E+0002 0.00000000000000E+0000
 1.90000000000000E+0002 1.30000000000000E+0002 0.00000000000000E+0000
 1.90000000000000E+0002 1.40000000000000E+0002 0.00000000000000E+0000
 1.90000000000000E+0002 1.50000000000000E+0002 0.00000000000000E+0000
 1.90000000000000E+0002 1.60000000000000E+0002 0.00000000000000E+0000
 1.90000000000000E+0002 1.70000000000000E+0002 0.00000000000000E+0000
 1.90000000000000E+0002 1.80000000000000E+0002 0.00000000000000E+0000
 2.00000000000000E+0002 0.00000000000000E+0000 0.00000000000000E+0000
 2.00000000000000E+0002 1.00000000000000E+0001 0.00000000000000E+0000
 2.00000000000000E+0002 2.00000000000000E+0001 0.00000000000000E+0000
 2.00000000000000E+0002 3.00000000000000E+0001 1.67772150000000E+0006
 2.00000000000000E+0002 4.00000000000000E+0001 1.67772150000000E+0006
 2.00000000000000E+0002 5.00000000000000E+0001 1.67772150000000E+0006
 2.00000000000000E+0002 6.00000000000000E+0001 0.00000000000000E+0000
 2.00000000000000E+0002 7.00000000000000E+0001 0.00000000000000E+0000
 2.00000000000000E+0002 8.00000000000000E+0001 0.00000000000000E+0000
 2.00000000000000E+0002 9.00000000000000E+0001 0.00000000000000E+0000
 2.00000000000000E+0002 1.00000000000000E+0002 0.00000000000000E+0000
 2.00000000000000E+0002 1.10000000000000E+0002 0.00000000000000E+0000
 2.00000000000000E+0002 1.20000000000000E+0002 0.00000000000000E+0000
 2.00000000000000E+0002 1.30000000000000E+0002 0.00000000000000E+0000
 2.00000000000000E+0002 1.40000000000000E+0002 0.00000000000000E+0000
 2.00000000000000E+0002 1.50000000000000E+0002 0.00000000000000E+0000
 2.00000000000000E+0002 1.60000000000000E+0002 0.00000000000000E+0000
 2.00000000000000E+0002 1.70000000000000E+0002 0.00000000000000E+0000
 2.00000000000000E+0002 1.80000000000000E+0002 0.00000000000000E+0000
 2.10000000000000E+0002 0.00000000000000E+0000 0.00000000000000E+0000
 2.10000000000000E+0002 1.00000000000000E+0001 0.00000000000000E+0000
 2.10000000000000E+0002 2.00000000000000E+0001 0.00000000000000E+0000
 2.10000000000000E+0002 3.00000000000000E+0001 0.00000000000000E+0000
 2.10000000000000E+0002 4.00000000000000E+0001 0.00000000000000E+0000
 2.10000000000000E+0002 5.00000000000000E+0001 0.00000000000000E+0000
 2.10000000000000E+0002 6.00000000000000E+0001 0.00000000000000E+0000
 2.10000000000000E+0002 7.00000000000000E+0001 0.00000000000000E+0000
 2.10000000000000E+0002 8.00000000000000E+0001 0.00000000000000E+0000
 2.10000000000000E+0002 9.00000000000000E+0001 0.00000000000000E+0000
 2.10000000000000E+0002 1.00000000000000E+0002 1.33559790000000E+0006
 2.10000000000000E+0002 1.10000000000000E+0002 1.67772150000000E+0006
 2.10000000000000E+0002 1.20000000000000E+0002 1.67772150000000E+0006
 2.10000000000000E+0002 1.30000000000000E+0002 0.00000000000000E+0000
 2.10000000000000E+0002 1.40000000000000E+0002 0.00000000000000E+0000
 2.10000000000000E+0002 1.50000000000000E+0002 0.00000000000000E+0000
 2.10000000000000E+0002 1.60000000000000E+0002 0.00000000000000E+0000
 2.10000000000000E+0002 1.70000000000000E+0002 0.00000000000000E+0000
 2.10000000000000E+0002 1.80000000000000E+0002 0.00000000000000E+0000
 2.20000000000000E+0002 0.00000000000000E+0000 0.00000000000000E+0000
 2.20000000000000E+0002 1.00000000000000E+0001 0.00000000000000E+0000
 2.20000000000000E+0002 2.00000000000000E+0001 0.00000000000000E+0000
 2.20000000000000E+0002 3.00000000000000E+0001 0.00000000000000E+0000
 2.20000000000000E+0002 4.00000000000000E+0001 0.00000000000000E+0000
 2.20000000000000E+0002 5.00000000000000E+0001 0.00000000000000E+0000
 2.20000000000000E+0002 6.00000000000000E+0001 0.00000000000000E+0000
 2.20000000000000E+0002 7.00000000000000E+0001 0.00000000000000E+0000
 2.20000000000000E+0002 8.00000000000000E+0001 0.00000000000000E+0000
 2.20000000000000E+0002 9.00000000000000E+0001 1.67772150000000E+0006
 2.20000000000000E+0002 1.00000000000000E+0002 1.67772150000000E+0006
 2.20000000000000E+0002 1.10000000000000E+0002 1.67772150000000E+0006
 2.20000000000000E+0002 1.20000000000000E+0002 1.67772150000000E+0006
 2.20000000000000E+0002 1.30000000000000E+0002 0.00000000000000E+0000
 2.20000000000000E+0002 1.40000000000000E+0002 0.00000000000000E+0000
 2.20000000000000E+0002 1.50000000000000E+0002 0.00000000000000E+0000
 2.20000000000000E+0002 1.60000000000000E+0002 0.00000000000000E+0000
 2.20000000000000E+0002 1.70000000000000E+0002 0.00000000000000E+0000
 2.20000000000000E+0002 1.80000000000000E+0002 0.00000000000000E+0000
 2.30000000000000E+0002 0.00000000000000E+0000 0.00000000000000E+0000
 2.30000000000000E+0002 1.00000000000000E+0001 0.00000000000000E+0000
 2.30000000000000E+0002 2.00000000000000E+0001 0.00000000000000E+0000
 2.30000000000000E+0002 3.00000000000000E+0001 1.67772150000000E+0006
 2.30000000000000E+0002 4.00000000000000E+0001 1.67772150000000E+0006
 2.30000000000000E+0002 5.00000000000000E+0001 1.67772150000000E+0006
 2.30000000000000E+0002 6.00000000000000E+0001 0.00000000000000E+0000
 2.30000000000000E+0002 7.00000000000000E+0001 0.00000000000000E+0000
 2.30000000000000E+0002 8.00000000000000E+0001 1.05268800000000E+0005
 2.30000000000000E+0002 9.00000000000000E+0001 1.67772150000000E+0006
 2.30000000000000E+0002 1.00000000000000E+0002 1.67772150000000E+0006
 2.30000000000000E+0002 1.10000000000000E+0002 1.67772150000000E+0006
 2.30000000000000E+0002 1.20000000000000E+0002 1.67772150000000E+0006
 2.30000000000000E+0002 1.30000000000000E+0002 0.00000000000000E+0000
 2.30000000000000E+0002 1.40000000000000E+0002 0.00000000000000E+0000
 2.30000000000000E+0002 1.50000000000000E+0002 0.00000000000000E+0000
 2.30000000000000E+0002 1.60000000000000E+0002 0.00000000000000E+0000
 2.30000000000000E+0002 1.70000000000000E+0002 0.00000000000000E+0000
 2.30000000000000E+0002 1.80000000000000E+0002 0.00000000000000E+0000
 2.40000000000000E+0002 0.00000000000000E+0000 0.00000000000000E+0000
 2.40000000000000E+0002 1.00000000000000E+0001 0.00000000000000E+0000
 2.40000000000000E+0002 2.00000000000000E+0001 1.67772150000000E+0006
 2.40000000000000E+0002 3.00000000000000E+0001 1.67772150000000E+0006
 2.40000000000000E+0002 4.00000000000000E+0001 1.67772150000000E+0006
 2.40000000000000E+0002 5.00000000000000E+0001 0.00000000000000E+0000
 2.40000000000000E+0002 6.00000000000000E+0001 0.00000000000000E+0000
 2.40000000000000E+0002 7.00000000000000E+0001 0.00000000000000E+0000
 2.40000000000000E+0002 8.00000000000000E+0001 1.67772150000000E+0006
 2.40000000000000E+0002 9.00000000000000E+0001 1.67772150000000E+0006
 2.40000000000000E+0002 1.00000000000000E+0002 0.00000000000000E+0000
 2.40000000000000E+0002 1.10000000000000E+0002 1.67772150000000E+0006
 2.40000000000000E+0002 1.20000000000000E+0002 1.67772150000000E+0006
 2.40000000000000E+0002 1.30000000000000E+0002 0.00000000000000E+0000
 2.40000000000000E+0002 1.40000000000000E+0002 0.00000000000000E+0000
 2.40000000000000E+0002 1.50000000000000E+0002 0.00000000000000E+0000
 2.40000000000000E+0002 1.60000000000000E+0002 0.00000000000000E+0000
 2.40000000000000E+0002 1.70000000000000E+0002 0.00000000000000E+0000
 2.40000000000000E+0002 1.80000000000000E+0002 0.00000000000000E+0000
 2.50000000000000E+0002 0.00000000000000E+0000 0.00000000000000E+0000
 2.50000000000000E+0002 1.00000000000000E+0001 0.00000000000000E+0000
 2.50000000000000E+0002 2.00000000000000E+0001 1.67772150000000E+0006
 2.50000000000000E+0002 3.00000000000000E+0001 1.67772150000000E+0006
 2.50000000000000E+0002 4.00000000000000E+0001 0.00000000000000E+0000
 2.50000000000000E+0002 5.00000000000000E+0001 0.00000000000000E+0000
 2.50000000000000E+0002 6.00000000000000E+0001 0.00000000000000E+0000
 2.50000000000000E+0002 7.00000000000000E+0001 1.67772150000000E+0006
 2.50000000000000E+0002 8.00000000000000E+0001 1.67772150000000E+0006
 2.50000000000000E+0002 9.00000000000000E+0001 1.67772150000000E+0006
 2.50000000000000E+0002 1.00000000000000E+0002 0.00000000000000E+0000
 2.50000000000000E+0002 1.10000000000000E+0002 1.67772150000000E+0006
 2.50000000000000E+0002 1.20000000000000E+0002 1.67772150000000E+0006
 2.50000000000000E+0002 1.30000000000000E+0002 0.00000000000000E+0000
 2.50000000000000E+0002 1.40000000000000E+0002 0.00000000000000E+0000
 2.50000000000000E+0002 1.50000000000000E+0002 0.00000000000000E+0000
 2.50000000000000E+0002 1.60000000000000E+0002 0.00000000000000E+0000
 2.50000000000000E+0002 1.70000000000000E+0002 0.00000000000000E+0000
 2.50000000000000E+0002 1.80000000000000E+0002 0.00000000000000E+0000
 2.60000000000000E+0002 0.00000000000000E+0000 0.00000000000000E+0000
 2.60000000000000E+0002 1.00000000000000E+0001 0.00000000000000E+0000
 2.60000000000000E+0002 2.00000000000000E+0001 0.00000000000000E+0000
 2.60000000000000E+0002 3.00000000000000E+0001 1.67772150000000E+0006
 2.60000000000000E+0002 4.00000000000000E+0001 1.67772150000000E+0006
 2.60000000000000E+0002 5.00000000000000E+0001 0.00000000000000E+0000
 2.60000000000000E+0002 6.00000000000000E+0001 4.73709600000000E+0005
 2.60000000000000E+0002 7.00000000000000E+0001 1.67772150000000E+0006
 2.60000000000000E+0002 8.00000000000000E+0001 1.67772150000000E+0006
 2.60000000000000E+0002 9.00000000000000E+0001 0.00000000000000E+0000
 2.60000000000000E+0002 1.00000000000000E+0002 0.00000000000000E+0000
 2.60000000000000E+0002 1.10000000000000E+0002 1.67772150000000E+0006
 2.60000000000000E+0002 1.20000000000000E+0002 1.67772150000000E+0006
 2.60000000000000E+0002 1.30000000000000E+0002 0.00000000000000E+0000
 2.60000000000000E+0002 1.40000000000000E+0002 0.00000000000000E+0000
 2.60000000000000E+0002 1.50000000000000E+0002 0.00000000000000E+0000
 2.60000000000000E+0002 1.60000000000000E+0002 0.00000000000000E+0000
 2.60000000000000E+0002 1.70000000000000E+0002 0.00000000000000E+0000
 2.60000000000000E+0002 1.80000000000000E+0002 0.00000000000000E+0000
 2.70000000000000E+0002 0.00000000000000E+0000 0.00000000000000E+0000
 2.70000000000000E+0002 1.00000000000000E+0001 0.00000000000000E+0000
 2.70000000000000E+0002 2.00000000000000E+0001 0.00000000000000E+0000
 2.70000000000000E+0002 3.00000000000000E+0001 1.67772150000000E+0006
 2.70000000000000E+0002 4.00000000000000E+0001 1.67772150000000E+0006
 2.70000000000000E+0002 5.00000000000000E+0001 1.67772150000000E+0006
 2.70000000000000E+0002 6.00000000000000E+0001 1.67772150000000E+0006
 2.70000000000000E+0002 7.00000000000000E+0001 1.67772150000000E+0006
 2.70000000000000E+0002 8.00000000000000E+0001 0.00000000000000E+0000
 2.70000000000000E+0002 9.00000000000000E+0001 0.00000000000000E+0000
 2.70000000000000E+0002 1.00000000000000E+0002 0.00000000000000E+0000
 2.70000000000000E+0002 1.10000000000000E+0002 1.67772150000000E+0006
 2.70000000000000E+0002 1.20000000000000E+0002 1.67772150000000E+0006
 2.70000000000000E+0002 1.30000000000000E+0002 1.10532240000000E+0006
 2.70000000000000E+0002 1.40000000000000E+0002 0.00000000000000E+0000
 2.70000000000000E+0002 1.50000000000000E+0002 0.00000000000000E+0000
 2.70000000000000E+0002 1.60000000000000E+0002 0.00000000000000E+0000
 2.70000000000000E+0002 1.70000000000000E+0002 0.00000000000000E+0000
 2.70000000000000E+0002 1.80000000000000E+0002 0.00000000000000E+0000
 2.80000000000000E+0002 0.00000000000000E+0000 0.00000000000000E+0000
 2.80000000000000E+0002 1.00000000000000E+0001 0.00000000000000E+0000
 2.80000000000000E+0002 2.00000000000000E+0001 0.00000000000000E+0000
 2.80000000000000E+0002 3.00000000000000E+0001 0.00000000000000E+0000
 2.80000000000000E+0002 4.00000000000000E+0001 1.67772150000000E+0006
 2.80000000000000E+0002 5.00000000000000E+0001 1.67772150000000E+0006
 2.80000000000000E+0002 6.00000000000000E+0001 1.67772150000000E+0006
 2.80000000000000E+0002 7.00000000000000E+0001 0.00000000000000E+0000
 2.80000000000000E+0002 8.00000000000000E+0001 0.00000000000000E+0000
 2.80000000000000E+0002 9.00000000000000E+0001 0.00000000000000E+0000
 2.80000000000000E+0002 1.00000000000000E+0002 0.00000000000000E+0000
 2.80000000000000E+0002 1.10000000000000E+0002 0.00000000000000E+0000
 2.80000000000000E+0002 1.20000000000000E+0002 1.67772150000000E+0006
 2.80000000000000E+0002 1.30000000000000E+0002 1.67772150000000E+0006
 2.80000000000000E+0002 1.40000000000000E+0002 0.00000000000000E+0000
 2.80000000000000E+0002 1.50000000000000E+0002 0.00000000000000E+0000
 2.80000000000000E+0002 1.60000000000000E+0002 0.00000000000000E+0000
 2.80000000000000E+0002 1.70000000000000E+0002 0.00000000000000E+0000
 2.80000000000000E+0002 1.80000000000000E+0002 0.00000000000000E+0000
 2.90000000000000E+0002 0.00000000000000E+0000 0.00000000000000E+0000
 2.90000000000000E+0002 1.00000000000000E+0001 0.00000000000000E+0000
 2.90000000000000E+0002 2.00000000000000E+0001 0.00000000000000E+0000
 2.90000000000000E+0002 3.00000000000000E+0001 0.00000000000000E+0000
 2.90000000000000E+0002 4.00000000000000E+0001 0.00000000000000E+0000
 2.90000000000000E+0002 5.00000000000000E+0001 0.00000000000000E+0000
 2.90000000000000E+0002 6.00000000000000E+0001 0.00000000000000E+0000
 2.90000000000000E+0002 7.00000000000000E+0001 0.00000000000000E+0000
 2.90000000000000E+0002 8.00000000000000E+0001 0.00000000000000E+0000
 2.90000000000000E+0002 9.00000000000000E+0001 0.00000000000000E+0000
 2.90000000000000E+0002 1.00000000000000E+0002 0.00000000000000E+0000
 2.90000000000000E+0002 1.10000000000000E+0002 0.00000000000000E+0000
 2.90000000000000E+0002 1.20000000000000E+0002 1.67772150000000E+0006
 2.90000000000000E+0002 1.30000000000000E+0002 1.67772150000000E+0006
 2.90000000000000E+0002 1.40000000000000E+0002 0.00000000000000E+0000
 2.90000000000000E+0002 1.50000000000000E+0002 0.00000000000000E+0000
 2.90000000000000E+0002 1.60000000000000E+0002 0.00000000000000E+0000
 2.90000000000000E+0002 1.70000000000000E+0002 0.00000000000000E+0000
 2.90000000000000E+0002 1.80000000000000E+0002 0.00000000000000E+0000
 3.00000000000000E+0002 0.00000000000000E+0000 0.00000000000000E+0000
 3.00000000000000E+0002 1.00000000000000E+0001 0.00000000000000E+0000
 3.00000000000000E+0002 2.00000000000000E+0001 0.00000000000000E+0000
 3.00000000000000E+0002 3.00000000000000E+0001 1.67772150000000E+0006
 3.00000000000000E+0002 4.00000000000000E+0001 0.00000000000000E+0000
 3.00000000000000E+0002 5.00000000000000E+0001 0.00000000000000E+0000
 3.00000000000000E+0002 6.00000000000000E+0001 0.00000000000000E+0000
 3.00000000000000E+0002 7.00000000000000E+0001 0.00000000000000E+0000
 3.00000000000000E+0002 8.00000000000000E+0001 0.00000000000000E+0000
 3.00000000000000E+0002 9.00000000000000E+0001 0.00000000000000E+0000
 3.00000000000000E+0002 1.00000000000000E+0002 0.00000000000000E+0000
 3.00000000000000E+0002 1.10000000000000E+0002 0.00000000000000E+0000
 3.00000000000000E+0002 1.20000000000000E+0002 0.00000000000000E+0000
 3.00000000000000E+0002 1.30000000000000E+0002 0.00000000000000E+0000
 3.00000000000000E+0002 1.40000000000000E+0002 0.00000000000000E+0000
 3.00000000000000E+0002 1.50000000000000E+0002 0.00000000000000E+0000
 3.00000000000000E+0002 1.60000000000000E+0002 0.00000000000000E+0000
 3.00000000000000E+0002 1.70000000000000E+0002 0.00000000000000E+0000
 3.00000000000000E+0002 1.80000000000000E+0002 0.00000000000000E+0000
 3.10000000000000E+0002 0.00000000000000E+0000 0.00000000000000E+0000
 3.10000000000000E+0002 1.00000000000000E+0001 0.00000000000000E+0000
 3.10000000000000E+0002 2.00000000000000E+0001 1.52639760000000E+0006
 3.10000000000000E+0002 3.00000000000000E+0001 1.67772150000000E+0006
 3.10000000000000E+0002 4.00000000000000E+0001 1.67772150000000E+0006
 3.10000000000000E+0002 5.00000000000000E+0001 0.00000000000000E+0000
 3.10000000000000E+0002 6.00000000000000E+0001 0.00000000000000E+0000
 3.10000000000000E+0002 7.00000000000000E+0001 0.00000000000000E+0000
 3.10000000000000E+0002 8.00000000000000E+0001 0.00000000000000E+0000
 3.10000000000000E+0002 9.00000000000000E+0001 0.00000000000000E+0000
 3.10000000000000E+0002 1.00000000000000E+0002 0.00000000000000E+0000
 3.10000000000000E+0002 1.10000000000000E+0002 0.00000000000000E+0000
 3.10000000000000E+0002 1.20000000000000E+0002 0.00000000000000E+0000
 3.10000000000000E+0002 1.30000000000000E+0002 4.73709600000000E+0005
 3.10000000000000E+0002 1.40000000000000E+0002 0.00000000000000E+0000
 3.10000000000000E+0002 1.50000000000000E+0002 0.00000000000000E+0000
 3.10000000000000E+0002 1.60000000000000E+0002 0.00000000000000E+0000
 3.10000000000000E+0002 1.70000000000000E+0002 0.00000000000000E+0000
 3.10000000000000E+0002 1.80000000000000E+0002 0.00000000000000E+0000
 3.20000000000000E+0002 0.00000000000000E+0000 0.00000000000000E+0000
 3.20000000000000E+0002 1.00000000000000E+0001 0.00000000000000E+0000
 3.20000000000000E+0002 2.00000000000000E+0001 0.00000000000000E+0000
 3.20000000000000E+0002 3.00000000000000E+0001 1.67772150000000E+0006
 3.20000000000000E+0002 4.00000000000000E+0001 1.67772150000000E+0006
 3.20000000000000E+0002 5.00000000000000E+0001 1.67772150000000E+0006
 3.20000000000000E+0002 6.00000000000000E+0001 1.67772150000000E+0006
 3.20000000000000E+0002 7.00000000000000E+0001 0.00000000000000E+0000
 3.20000000000000E+0002 8.00000000000000E+0001 0.00000000000000E+0000
 3.20000000000000E+0002 9.00000000000000E+0001 0.00000000000000E+0000
 3.20000000000000E+0002 1.00000000000000E+0002 0.00000000000000E+0000
 3.20000000000000E+0002 1.10000000000000E+0002 1.67772150000000E+0006
 3.20000000000000E+0002 1.20000000000000E+0002 1.67772150000000E+0006
 3.20000000000000E+0002 1.30000000000000E+0002 1.67772150000000E+0006
 3.20000000000000E+0002 1.40000000000000E+0002 0.00000000000000E+0000
 3.20000000000000E+0002 1.50000000000000E+0002 0.00000000000000E+0000
 3.20000000000000E+0002 1.60000000000000E+0002 0.00000000000000E+0000
 3.20000000000000E+0002 1.70000000000000E+0002 0.00000000000000E+0000
 3.20000000000000E+0002 1.80000000000000E+0002 0.00000000000000E+0000
 3.30000000000000E+0002 0.00000000000000E+0000 0.00000000000000E+0000
 3.30000000000000E+0002 1.00000000000000E+0001 0.00000000000000E+0000
 3.30000000000000E+0002 2.00000000000000E+0001 0.00000000000000E+0000
 3.30000000000000E+0002 3.00000000000000E+0001 0.00000000000000E+0000
 3.30000000000000E+0002 4.00000000000000E+0001 1.57903200000000E+0005
 3.30000000000000E+0002 5.00000000000000E+0001 1.67772150000000E+0006
 3.30000000000000E+0002 6.00000000000000E+0001 1.67772150000000E+0006
 3.30000000000000E+0002 7.00000000000000E+0001 1.67772150000000E+0006
 3.30000000000000E+0002 8.00000000000000E+0001 1.67772150000000E+0006
 3.30000000000000E+0002 9.00000000000000E+0001 0.00000000000000E+0000
 3.30000000000000E+0002 1.00000000000000E+0002 1.67772150000000E+0006
 3.30000000000000E+0002 1.10000000000000E+0002 1.67772150000000E+0006
 3.30000000000000E+0002 1.20000000000000E+0002 1.67772150000000E+0006
 3.30000000000000E+0002 1.30000000000000E+0002 3.02647800000000E+0005
 3.30000000000000E+0002 1.40000000000000E+0002 0.00000000000000E+0000
 3.30000000000000E+0002 1.50000000000000E+0002 0.00000000000000E+0000
 3.30000000000000E+0002 1.60000000000000E+0002 0.00000000000000E+0000
 3.30000000000000E+0002 1.70000000000000E+0002 0.00000000000000E+0000
 3.30000000000000E+0002 1.80000000000000E+0002 0.00000000000000E+0000
 3.40000000000000E+0002 0.00000000000000E+0000 0.00000000000000E+0000
 3.40000000000000E+0002 1.00000000000000E+0001 0.00000000000000E+0000
 3.40000000000000E+0002 2.00000000000000E+0001 0.00000000000000E+0000
 3.40000000000000E+0002 3.00000000000000E+0001 0.00000000000000E+0000
 3.40000000000000E+0002 4.00000000000000E+0001 0.00000000000000E+0000
 3.40000000000000E+0002 5.00000000000000E+0001 0.00000000000000E+0000
 3.40000000000000E+0002 6.00000000000000E+0001 1.67772150000000E+0006
 3.40000000000000E+0002 7.00000000000000E+0001 1.67772150000000E+0006
 3.40000000000000E+0002 8.00000000000000E+0001 1.67772150000000E+0006
 3.40000000000000E+0002 9.00000000000000E+0001 1.67772150000000E+0006
 3.40000000000000E+0002 1.00000000000000E+0002 1.67772150000000E+0006
 3.40000000000000E+0002 1.10000000000000E+0002 1.67772150000000E+0006
 3.40000000000000E+0002 1.20000000000000E+0002 0.00000000000000E+0000
 3.40000000000000E+0002 1.30000000000000E+0002 0.00000000000000E+0000
 3.40000000000000E+0002 1.40000000000000E+0002 0.00000000000000E+0000
 3.40000000000000E+0002 1.50000000000000E+0002 0.00000000000000E+0000
 3.40000000000000E+0002 1.60000000000000E+0002 0.00000000000000E+0000
 3.40000000000000E+0002 1.70000000000000E+0002 0.00000000000000E+0000
 3.40000000000000E+0002 1.80000000000000E+0002 0.00000000000000E+0000
 3.50000000000000E+0002 0.00000000000000E+0000 0.00000000000000E+0000
 3.50000000000000E+0002 1.00000000000000E+0001 0.00000000000000E+0000
 3.50000000000000E+0002 2.00000000000000E+0001 0.00000000000000E+0000
 3.50000000000000E+0002 3.00000000000000E+0001 0.00000000000000E+0000
 3.50000000000000E+0002 4.00000000000000E+0001 0.00000000000000E+0000
 3.50000000000000E+0002 5.00000000000000E+0001 1.35533580000000E+0006
 3.50000000000000E+0002 6.00000000000000E+0001 1.67772150000000E+0006
 3.50000000000000E+0002 7.00000000000000E+0001 1.67772150000000E+0006
 3.50000000000000E+0002 8.00000000000000E+0001 1.67772150000000E+0006
 3.50000000000000E+0002 9.00000000000000E+0001 1.67772150000000E+0006
 3.50000000000000E+0002 1.00000000000000E+0002 1.67772150000000E+0006
 3.50000000000000E+0002 1.10000000000000E+0002 1.67772150000000E+0006
 3.50000000000000E+0002 1.20000000000000E+0002 0.00000000000000E+0000
 3.50000000000000E+0002 1.30000000000000E+0002 0.00000000000000E+0000
 3.50000000000000E+0002 1.40000000000000E+0002 0.00000000000000E+0000
 3.50000000000000E+0002 1.50000000000000E+0002 0.00000000000000E+0000
 3.50000000000000E+0002 1.60000000000000E+0002 0.00000000000000E+0000
 3.50000000000000E+0002 1.70000000000000E+0002 0.00000000000000E+0000
 3.50000000000000E+0002 1.80000000000000E+0002 0.00000000000000E+0000
 3.60000000000000E+0002 0.00000000000000E+0000 0.00000000000000E+0000
 3.60000000000000E+0002 1.00000000000000E+0001 0.00000000000000E+0000
 3.60000000000000E+0002 2.00000000000000E+0001 0.00000000000000E+0000
 3.60000000000000E+0002 3.00000000000000E+0001 1.67772150000000E+0006
 3.60000000000000E+0002 4.00000000000000E+0001 1.67772150000000E+0006
 3.60000000000000E+0002 5.00000000000000E+0001 1.67772150000000E+0006
 3.60000000000000E+0002 6.00000000000000E+0001 1.67772150000000E+0006
 3.60000000000000E+0002 7.00000000000000E+0001 1.67772150000000E+0006
 3.60000000000000E+0002 8.00000000000000E+0001 0.00000000000000E+0000
 3.60000000000000E+0002 9.00000000000000E+0001 0.00000000000000E+0000
 3.60000000000000E+0002 1.00000000000000E+0002 1.67772150000000E+0006
 3.60000000000000E+0002 1.10000000000000E+0002 1.67772150000000E+0006
 3.60000000000000E+0002 1.20000000000000E+0002 1.67772150000000E+0006
 3.60000000000000E+0002 1.30000000000000E+0002 1.67772150000000E+0006
 3.60000000000000E+0002 1.40000000000000E+0002 0.00000000000000E+0000
 3.60000000000000E+0002 1.50000000000000E+0002 0.00000000000000E+0000
 3.60000000000000E+0002 1.60000000000000E+0002 0.00000000000000E+0000
 3.60000000000000E+0002 1.70000000000000E+0002 0.00000000000000E+0000
 3.60000000000000E+0002 1.80000000000000E+0002 0.00000000000000E+0000
 3.70000000000000E+0002 0.00000000000000E+0000 0.00000000000000E+0000
 3.70000000000000E+0002 1.00000000000000E+0001 0.00000000000000E+0000
 3.70000000000000E+0002 2.00000000000000E+0001 0.00000000000000E+0000
 3.70000000000000E+0002 3.00000000000000E+0001 1.67772150000000E+0006
 3.70000000000000E+0002 4.00000000000000E+0001 1.67772150000000E+0006
 3.70000000000000E+0002 5.00000000000000E+0001 1.67772150000000E+0006
 3.70000000000000E+0002 6.00000000000000E+0001 0.00000000000000E+0000
 3.70000000000000E+0002 7.00000000000000E+0001 0.00000000000000E+0000
 3.70000000000000E+0002 8.00000000000000E+0001 0.00000000000000E+0000
 3.70000000000000E+0002 9.00000000000000E+0001 0.00000000000000E+0000
 3.70000000000000E+0002 1.00000000000000E+0002 0.00000000000000E+0000
 3.70000000000000E+0002 1.10000000000000E+0002 0.00000000000000E+0000
 3.70000000000000E+0002 1.20000000000000E+0002 1.67772150000000E+0006
 3.70000000000000E+0002 1.30000000000000E+0002 1.67772150000000E+0006
 3.70000000000000E+0002 1.40000000000000E+0002 0.00000000000000E+0000
 3.70000000000000E+0002 1.50000000000000E+0002 0.00000000000000E+0000
 3.70000000000000E+0002 1.60000000000000E+0002 0.00000000000000E+0000
 3.70000000000000E+0002 1.70000000000000E+0002 0.00000000000000E+0000
